1.985, 1.985, 1.989, 1.989, 1.989, 1.99, 1.991, 1.991, 1.991, 1.99, 1.989, 1.985, 1.98, 1.979, 1.978, 1.978, 1.978, 1.978, 1.978, 1.979, 1.979, 1.985, 1.985, 1.985, 1.985, 1.985, 1.981, 1.98, 1.974, 1.974, 1.974, 1.974, 1.974, 1.974, 1.974, 1.974, 1.974, 1.974, 1.974, 1.974, 1.974, 1.974, 1.97, 1.97, 1.97, 1.97, 1.97, 1.974, 1.974, 1.978, 1.979, 1.98, 1.981, 1.985, 1.985, 1.989, 1.989, 1.989, 1.99, 1.99, 1.99, 1.99, 1.989, 1.989, 1.989, 1.989, 1.985, 1.985, 1.985, 1.985, 1.989, 1.989, 1.989, 1.989, 1.989, 1.989, 1.989, 1.985, 1.985, 1.981, 1.98, 1.979, 1.978, 1.978, 1.979, 1.98, 1.981, 1.981, 1.989, 1.99, 1.991, 1.992, 1.992, 1.992, 1.992, 1.991, 1.991, 1.99, 1.989, 1.989, 1.985, 1.985, 1.985, 1.981, 1.98, 1.98, 1.98, 1.98, 1.981, 1.985, 1.985, 1.99, 1.99, 1.991, 1.996, 1.992, 1.991, 1.99, 1.989, 1.985, 1.98, 1.979, 1.974, 1.969, 1.968, 1.967, 1.962, 1.961, 1.96, 1.96, 1.956, 1.956, 1.956, 1.956, 1.956, 1.96, 1.96, 1.968, 1.968, 1.974, 1.979, 1.98, 1.981, 1.981, 1.98, 1.974, 1.974, 1.969, 1.968, 1.968, 1.968, 1.968, 1.968, 1.968, 1.967, 1.967, 1.967, 1.962, 1.961, 1.96, 1.96, 1.96, 1.96, 1.96, 1.961, 1.961, 1.961, 1.96, 1.96, 1.96, 1.956, 1.956, 1.952, 1.952, 1.956, 1.956, 1.956, 1.956, 1.956, 1.956, 1.956, 1.956, 1.956, 1.952, 1.952, 1.952, 1.952, 1.952, 1.952, 1.952, 1.952, 1.952, 1.952, 1.952, 1.952, 1.952, 1.952, 1.956, 1.96, 1.96, 1.961, 1.962, 1.962, 1.963, 1.962, 1.961, 1.96, 1.956, 1.952, 1.951, 1.95, 1.95, 1.949, 1.949, 1.949, 1.949, 1.949, 1.945, 1.945, 1.945, 1.945, 1.945, 1.945, 1.945, 1.945, 1.945, 1.945, 1.945, 1.945, 1.945, 1.949, 1.95, 1.951, 1.952, 1.952, 1.956, 1.956, 1.96, 1.96, 1.96, 1.96, 1.96, 1.96, 1.96, 1.96, 1.96, 1.96, 1.96, 1.96, 1.96, 1.96, 1.96, 1.96, 1.96, 1.96, 1.96, 1.956, 1.951, 1.95, 1.945, 1.944, 1.943, 1.943, 1.943, 1.943, 1.944, 1.944, 1.945, 1.951, 1.951, 1.952, 1.956, 1.956, 1.956, 1.952, 1.951, 1.95, 1.944, 1.943, 1.942, 1.942, 1.938, 1.938, 1.938, 1.938, 1.938, 1.938, 1.937, 1.936, 1.935, 1.935, 1.935, 1.935, 1.936, 1.937, 1.938, 1.942, 1.942, 1.942, 1.943, 1.944, 1.945, 1.949, 1.949, 1.949, 1.95, 1.951, 1.952, 1.952, 1.951, 1.95, 1.949, 1.945, 1.945, 1.945, 1.945, 1.945, 1.945, 1.945, 1.945, 1.945, 1.945, 1.945, 1.945, 1.944, 1.944, 1.943, 1.942, 1.942, 1.942, 1.942, 1.942, 1.938, 1.938, 1.938, 1.938, 1.938, 1.942, 1.942, 1.942, 1.938, 1.938, 1.938, 1.937, 1.936, 1.931, 1.93, 1.929, 1.928, 1.928, 1.928, 1.929, 1.929, 1.93, 1.935, 1.935, 1.936, 1.936, 1.936, 1.936, 1.936, 1.93, 1.929, 1.923, 1.922, 1.916, 1.915, 1.914, 1.914, 1.914, 1.914, 1.914, 1.914, 1.915, 1.916, 1.917, 1.917, 1.921, 1.921, 1.922, 1.922, 1.923, 1.923, 1.923, 1.923, 1.922, 1.921, 1.921, 1.917, 1.917, 1.916, 1.916, 1.916, 1.916, 1.917, 1.917, 1.921, 1.921, 1.921, 1.921, 1.917, 1.916, 1.914, 1.912, 1.911, 1.907, 1.906, 1.905, 1.905, 1.906, 1.907, 1.911, 1.911, 1.912, 1.912, 1.912, 1.911, 1.906, 1.905, 1.899, 1.897, 1.895, 1.888, 1.884, 1.88, 1.879, 1.878, 1.877, 1.877, 1.877, 1.877, 1.877, 1.878, 1.878, 1.879, 1.884, 1.885, 1.887, 1.888, 1.889, 1.89, 1.894, 1.894, 1.895
1.985, 1.989, 1.989, 1.989, 1.989, 1.99, 1.991, 1.991, 1.991, 1.99, 1.989, 1.981, 1.98, 1.979, 1.978, 1.978, 1.978, 1.978, 1.979, 1.98, 1.985, 1.985, 1.99, 1.99, 1.989, 1.985, 1.985, 1.981, 1.974, 1.974, 1.974, 1.974, 1.974, 1.974, 1.974, 1.974, 1.974, 1.974, 1.974, 1.974, 1.974, 1.974, 1.97, 1.97, 1.97, 1.97, 1.974, 1.974, 1.974, 1.979, 1.98, 1.981, 1.981, 1.985, 1.985, 1.989, 1.989, 1.99, 1.991, 1.991, 1.991, 1.991, 1.99, 1.99, 1.989, 1.989, 1.989, 1.989, 1.989, 1.989, 1.989, 1.989, 1.989, 1.989, 1.989, 1.989, 1.985, 1.985, 1.981, 1.981, 1.98, 1.979, 1.978, 1.978, 1.979, 1.98, 1.981, 1.985, 1.989, 1.99, 1.991, 1.992, 1.992, 1.992, 1.992, 1.992, 1.991, 1.99, 1.989, 1.989, 1.985, 1.985, 1.985, 1.98, 1.979, 1.979, 1.979, 1.979, 1.98, 1.985, 1.985, 1.989, 1.99, 1.991, 1.996, 1.996, 1.991, 1.99, 1.99, 1.985, 1.98, 1.979, 1.974, 1.969, 1.968, 1.967, 1.962, 1.961, 1.96, 1.96, 1.96, 1.956, 1.956, 1.956, 1.956, 1.96, 1.96, 1.967, 1.968, 1.974, 1.974, 1.98, 1.981, 1.98, 1.98, 1.974, 1.969, 1.968, 1.968, 1.967, 1.967, 1.967, 1.967, 1.967, 1.967, 1.967, 1.967, 1.963, 1.962, 1.961, 1.96, 1.96, 1.96, 1.961, 1.962, 1.962, 1.962, 1.961, 1.96, 1.96, 1.96, 1.956, 1.956, 1.956, 1.956, 1.956, 1.956, 1.956, 1.956, 1.956, 1.956, 1.956, 1.952, 1.952, 1.952, 1.952, 1.952, 1.952, 1.952, 1.952, 1.952, 1.952, 1.952, 1.952, 1.952, 1.952, 1.952, 1.956, 1.96, 1.96, 1.96, 1.961, 1.962, 1.962, 1.962, 1.961, 1.96, 1.96, 1.956, 1.952, 1.951, 1.95, 1.95, 1.949, 1.949, 1.949, 1.949, 1.945, 1.945, 1.945, 1.945, 1.945, 1.945, 1.945, 1.945, 1.945, 1.945, 1.945, 1.945, 1.945, 1.949, 1.95, 1.951, 1.952, 1.952, 1.956, 1.956, 1.96, 1.96, 1.96, 1.96, 1.96, 1.96, 1.96, 1.96, 1.96, 1.956, 1.956, 1.96, 1.96, 1.96, 1.96, 1.96, 1.96, 1.96, 1.96, 1.956, 1.951, 1.95, 1.945, 1.944, 1.943, 1.942, 1.942, 1.942, 1.943, 1.943, 1.944, 1.945, 1.952, 1.952, 1.956, 1.956, 1.956, 1.952, 1.951, 1.95, 1.944, 1.943, 1.942, 1.942, 1.942, 1.942, 1.938, 1.938, 1.938, 1.938, 1.938, 1.937, 1.936, 1.935, 1.935, 1.935, 1.936, 1.937, 1.938, 1.942, 1.942, 1.942, 1.943, 1.944, 1.945, 1.949, 1.949, 1.949, 1.95, 1.951, 1.952, 1.952, 1.951, 1.95, 1.949, 1.945, 1.945, 1.945, 1.945, 1.945, 1.945, 1.945, 1.945, 1.945, 1.945, 1.945, 1.944, 1.943, 1.943, 1.942, 1.942, 1.942, 1.942, 1.942, 1.942, 1.938, 1.938, 1.938, 1.938, 1.938, 1.938, 1.938, 1.938, 1.938, 1.938, 1.937, 1.936, 1.935, 1.931, 1.93, 1.929, 1.928, 1.924, 1.924, 1.928, 1.929, 1.93, 1.93, 1.935, 1.935, 1.935, 1.935, 1.936, 1.93, 1.929, 1.923, 1.922, 1.916, 1.915, 1.914, 1.913, 1.912, 1.912, 1.912, 1.914, 1.914, 1.915, 1.916, 1.917, 1.917, 1.921, 1.922, 1.923, 1.923, 1.924, 1.924, 1.924, 1.923, 1.923, 1.922, 1.921, 1.921, 1.917, 1.917, 1.917, 1.917, 1.917, 1.921, 1.921, 1.921, 1.921, 1.921, 1.921, 1.917, 1.916, 1.914, 1.912, 1.911, 1.907, 1.906, 1.905, 1.905, 1.905, 1.906, 1.907, 1.911, 1.911, 1.911, 1.911, 1.911, 1.906, 1.905, 1.899, 1.897, 1.895, 1.889, 1.885, 1.885, 1.879, 1.878, 1.878, 1.877, 1.877, 1.878, 1.878, 1.878, 1.879, 1.88, 1.885, 1.886, 1.888, 1.889, 1.89, 1.894, 1.894, 1.895, 1.896
1.985, 1.985, 1.989, 1.989, 1.989, 1.989, 1.99, 1.99, 1.99, 1.989, 1.985, 1.98, 1.979, 1.978, 1.978, 1.978, 1.978, 1.979, 1.98, 1.985, 1.985, 1.992, 1.991, 1.991, 1.99, 1.989, 1.985, 1.98, 1.979, 1.974, 1.974, 1.974, 1.974, 1.974, 1.974, 1.974, 1.974, 1.974, 1.974, 1.974, 1.974, 1.974, 1.974, 1.97, 1.97, 1.97, 1.974, 1.974, 1.974, 1.979, 1.98, 1.981, 1.985, 1.985, 1.989, 1.989, 1.99, 1.991, 1.991, 1.992, 1.992, 1.992, 1.991, 1.991, 1.99, 1.989, 1.989, 1.989, 1.989, 1.989, 1.989, 1.989, 1.989, 1.989, 1.989, 1.985, 1.985, 1.981, 1.981, 1.98, 1.979, 1.978, 1.978, 1.978, 1.979, 1.98, 1.981, 1.985, 1.989, 1.99, 1.991, 1.992, 1.996, 1.992, 1.992, 1.992, 1.992, 1.991, 1.99, 1.989, 1.985, 1.985, 1.981, 1.98, 1.979, 1.978, 1.978, 1.979, 1.979, 1.98, 1.985, 1.989, 1.99, 1.991, 1.996, 1.996, 1.991, 1.99, 1.989, 1.985, 1.98, 1.979, 1.974, 1.969, 1.968, 1.967, 1.962, 1.961, 1.96, 1.96, 1.96, 1.96, 1.956, 1.956, 1.96, 1.96, 1.96, 1.967, 1.967, 1.974, 1.974, 1.979, 1.98, 1.98, 1.974, 1.974, 1.968, 1.967, 1.963, 1.962, 1.962, 1.962, 1.963, 1.967, 1.967, 1.967, 1.963, 1.963, 1.962, 1.961, 1.96, 1.96, 1.96, 1.961, 1.962, 1.963, 1.962, 1.962, 1.961, 1.96, 1.96, 1.96, 1.956, 1.956, 1.956, 1.956, 1.956, 1.956, 1.956, 1.956, 1.956, 1.956, 1.952, 1.952, 1.952, 1.952, 1.952, 1.952, 1.952, 1.952, 1.952, 1.952, 1.952, 1.952, 1.952, 1.952, 1.952, 1.956, 1.96, 1.96, 1.96, 1.961, 1.961, 1.962, 1.962, 1.961, 1.96, 1.96, 1.956, 1.952, 1.952, 1.951, 1.951, 1.95, 1.949, 1.949, 1.949, 1.949, 1.945, 1.945, 1.945, 1.945, 1.945, 1.945, 1.945, 1.945, 1.945, 1.945, 1.945, 1.945, 1.949, 1.949, 1.95, 1.951, 1.952, 1.956, 1.956, 1.96, 1.96, 1.961, 1.961, 1.961, 1.96, 1.96, 1.96, 1.96, 1.956, 1.956, 1.956, 1.956, 1.96, 1.96, 1.96, 1.96, 1.96, 1.956, 1.952, 1.951, 1.95, 1.944, 1.943, 1.942, 1.938, 1.938, 1.938, 1.942, 1.943, 1.944, 1.945, 1.952, 1.952, 1.956, 1.956, 1.956, 1.956, 1.951, 1.95, 1.944, 1.943, 1.942, 1.942, 1.942, 1.942, 1.942, 1.938, 1.938, 1.938, 1.938, 1.937, 1.936, 1.936, 1.935, 1.935, 1.936, 1.937, 1.938, 1.942, 1.942, 1.942, 1.943, 1.944, 1.945, 1.949, 1.949, 1.949, 1.95, 1.951, 1.952, 1.952, 1.951, 1.95, 1.949, 1.945, 1.945, 1.945, 1.945, 1.945, 1.945, 1.945, 1.945, 1.944, 1.944, 1.944, 1.943, 1.942, 1.942, 1.942, 1.942, 1.942, 1.942, 1.942, 1.942, 1.942, 1.938, 1.938, 1.938, 1.938, 1.938, 1.937, 1.937, 1.937, 1.937, 1.936, 1.936, 1.931, 1.931, 1.93, 1.929, 1.928, 1.924, 1.924, 1.924, 1.928, 1.929, 1.93, 1.93, 1.93, 1.931, 1.931, 1.935, 1.93, 1.929, 1.923, 1.922, 1.916, 1.914, 1.913, 1.912, 1.912, 1.912, 1.912, 1.913, 1.914, 1.915, 1.916, 1.917, 1.917, 1.921, 1.922, 1.923, 1.924, 1.924, 1.928, 1.928, 1.924, 1.924, 1.923, 1.922, 1.922, 1.922, 1.922, 1.922, 1.922, 1.922, 1.922, 1.922, 1.922, 1.922, 1.921, 1.921, 1.921, 1.916, 1.914, 1.912, 1.911, 1.907, 1.906, 1.905, 1.904, 1.905, 1.906, 1.907, 1.911, 1.911, 1.911, 1.911, 1.911, 1.906, 1.905, 1.899, 1.897, 1.895, 1.889, 1.887, 1.886, 1.88, 1.879, 1.879, 1.878, 1.878, 1.879, 1.879, 1.879, 1.88, 1.885, 1.885, 1.887, 1.889, 1.889, 1.89, 1.894, 1.894, 1.895, 1.896
1.985, 1.985, 1.985, 1.985, 1.989, 1.989, 1.989, 1.989, 1.989, 1.989, 1.985, 1.98, 1.979, 1.978, 1.978, 1.978, 1.979, 1.98, 1.98, 1.985, 1.99, 1.991, 1.996, 1.991, 1.991, 1.99, 1.985, 1.98, 1.979, 1.974, 1.974, 1.974, 1.974, 1.974, 1.974, 1.974, 1.974, 1.974, 1.974, 1.978, 1.978, 1.974, 1.974, 1.974, 1.974, 1.974, 1.974, 1.974, 1.978, 1.979, 1.98, 1.981, 1.985, 1.989, 1.989, 1.989, 1.99, 1.991, 1.992, 1.996, 1.996, 1.996, 1.992, 1.991, 1.991, 1.99, 1.989, 1.989, 1.989, 1.989, 1.989, 1.989, 1.989, 1.989, 1.989, 1.985, 1.985, 1.981, 1.981, 1.98, 1.979, 1.978, 1.978, 1.978, 1.979, 1.98, 1.981, 1.985, 1.989, 1.99, 1.991, 1.992, 1.992, 1.992, 1.992, 1.992, 1.992, 1.991, 1.99, 1.989, 1.985, 1.985, 1.98, 1.979, 1.978, 1.974, 1.974, 1.978, 1.979, 1.98, 1.981, 1.985, 1.99, 1.991, 1.996, 1.991, 1.991, 1.99, 1.989, 1.985, 1.98, 1.979, 1.974, 1.969, 1.968, 1.967, 1.963, 1.962, 1.961, 1.96, 1.96, 1.956, 1.956, 1.956, 1.96, 1.96, 1.961, 1.962, 1.968, 1.968, 1.974, 1.974, 1.979, 1.979, 1.974, 1.969, 1.968, 1.967, 1.962, 1.961, 1.961, 1.961, 1.962, 1.962, 1.962, 1.962, 1.962, 1.962, 1.962, 1.961, 1.96, 1.96, 1.96, 1.961, 1.962, 1.963, 1.963, 1.962, 1.961, 1.96, 1.96, 1.96, 1.956, 1.956, 1.956, 1.96, 1.96, 1.96, 1.956, 1.956, 1.956, 1.956, 1.952, 1.952, 1.952, 1.952, 1.952, 1.952, 1.952, 1.952, 1.952, 1.952, 1.952, 1.952, 1.952, 1.952, 1.956, 1.956, 1.96, 1.96, 1.96, 1.96, 1.961, 1.962, 1.962, 1.961, 1.96, 1.96, 1.956, 1.956, 1.952, 1.952, 1.951, 1.95, 1.949, 1.949, 1.949, 1.949, 1.945, 1.945, 1.945, 1.945, 1.945, 1.945, 1.945, 1.945, 1.945, 1.945, 1.945, 1.945, 1.949, 1.949, 1.949, 1.95, 1.951, 1.956, 1.956, 1.96, 1.961, 1.962, 1.962, 1.962, 1.961, 1.96, 1.96, 1.96, 1.956, 1.956, 1.956, 1.956, 1.96, 1.96, 1.96, 1.96, 1.96, 1.956, 1.952, 1.951, 1.95, 1.944, 1.943, 1.942, 1.938, 1.938, 1.938, 1.938, 1.942, 1.943, 1.944, 1.952, 1.952, 1.956, 1.956, 1.956, 1.956, 1.952, 1.951, 1.945, 1.944, 1.943, 1.942, 1.942, 1.942, 1.942, 1.942, 1.938, 1.938, 1.938, 1.938, 1.937, 1.937, 1.936, 1.936, 1.936, 1.937, 1.938, 1.942, 1.942, 1.942, 1.943, 1.944, 1.945, 1.949, 1.949, 1.949, 1.95, 1.951, 1.952, 1.952, 1.951, 1.95, 1.949, 1.945, 1.945, 1.945, 1.945, 1.945, 1.945, 1.944, 1.944, 1.943, 1.943, 1.943, 1.942, 1.942, 1.942, 1.942, 1.942, 1.942, 1.942, 1.942, 1.942, 1.942, 1.938, 1.938, 1.938, 1.938, 1.937, 1.936, 1.936, 1.936, 1.936, 1.935, 1.935, 1.931, 1.93, 1.929, 1.928, 1.924, 1.924, 1.923, 1.923, 1.923, 1.928, 1.929, 1.929, 1.929, 1.93, 1.93, 1.93, 1.929, 1.923, 1.922, 1.916, 1.915, 1.914, 1.912, 1.912, 1.911, 1.911, 1.912, 1.913, 1.914, 1.915, 1.916, 1.917, 1.921, 1.922, 1.923, 1.924, 1.924, 1.928, 1.929, 1.929, 1.928, 1.928, 1.924, 1.923, 1.923, 1.923, 1.923, 1.923, 1.923, 1.923, 1.923, 1.923, 1.923, 1.923, 1.922, 1.921, 1.921, 1.916, 1.914, 1.912, 1.911, 1.906, 1.905, 1.904, 1.904, 1.904, 1.905, 1.906, 1.907, 1.911, 1.911, 1.911, 1.911, 1.906, 1.905, 1.899, 1.897, 1.896, 1.889, 1.888, 1.887, 1.885, 1.88, 1.88, 1.879, 1.879, 1.88, 1.88, 1.88, 1.885, 1.885, 1.886, 1.888, 1.889, 1.894, 1.894, 1.894, 1.894, 1.894, 1.895
1.985, 1.985, 1.985, 1.985, 1.985, 1.989, 1.989, 1.989, 1.989, 1.985, 1.985, 1.981, 1.98, 1.979, 1.979, 1.979, 1.98, 1.98, 1.985, 1.99, 1.991, 1.996, 2, 1.996, 1.996, 1.99, 1.989, 1.98, 1.979, 1.974, 1.974, 1.974, 1.974, 1.974, 1.974, 1.974, 1.974, 1.974, 1.978, 1.978, 1.978, 1.978, 1.974, 1.974, 1.974, 1.974, 1.974, 1.974, 1.978, 1.979, 1.98, 1.981, 1.985, 1.989, 1.989, 1.99, 1.991, 1.992, 1.992, 1.996, 1.996, 1.996, 1.996, 1.996, 1.991, 1.991, 1.99, 1.989, 1.989, 1.989, 1.989, 1.989, 1.989, 1.989, 1.989, 1.985, 1.985, 1.981, 1.981, 1.98, 1.979, 1.978, 1.974, 1.974, 1.978, 1.979, 1.98, 1.981, 1.985, 1.989, 1.99, 1.991, 1.992, 1.992, 1.992, 1.992, 1.992, 1.991, 1.99, 1.989, 1.985, 1.985, 1.98, 1.979, 1.978, 1.974, 1.974, 1.974, 1.979, 1.98, 1.98, 1.985, 1.989, 1.99, 1.991, 1.991, 1.99, 1.989, 1.989, 1.981, 1.98, 1.979, 1.974, 1.969, 1.968, 1.967, 1.963, 1.962, 1.961, 1.96, 1.96, 1.956, 1.956, 1.956, 1.96, 1.96, 1.961, 1.961, 1.967, 1.968, 1.974, 1.974, 1.974, 1.974, 1.974, 1.969, 1.968, 1.963, 1.962, 1.961, 1.96, 1.96, 1.961, 1.961, 1.961, 1.961, 1.961, 1.961, 1.961, 1.96, 1.96, 1.96, 1.961, 1.962, 1.963, 1.963, 1.963, 1.962, 1.961, 1.96, 1.96, 1.96, 1.956, 1.956, 1.96, 1.96, 1.96, 1.96, 1.956, 1.956, 1.956, 1.956, 1.952, 1.952, 1.952, 1.952, 1.952, 1.952, 1.952, 1.952, 1.952, 1.952, 1.952, 1.952, 1.952, 1.956, 1.956, 1.96, 1.96, 1.96, 1.96, 1.961, 1.962, 1.963, 1.963, 1.962, 1.961, 1.96, 1.96, 1.956, 1.956, 1.952, 1.952, 1.951, 1.95, 1.949, 1.949, 1.949, 1.949, 1.945, 1.945, 1.945, 1.945, 1.945, 1.945, 1.945, 1.945, 1.945, 1.945, 1.945, 1.949, 1.949, 1.949, 1.95, 1.951, 1.956, 1.956, 1.96, 1.961, 1.962, 1.962, 1.962, 1.961, 1.961, 1.96, 1.96, 1.956, 1.956, 1.956, 1.956, 1.956, 1.96, 1.96, 1.96, 1.96, 1.956, 1.952, 1.951, 1.95, 1.944, 1.943, 1.942, 1.938, 1.938, 1.938, 1.938, 1.942, 1.943, 1.944, 1.952, 1.956, 1.956, 1.96, 1.96, 1.956, 1.952, 1.951, 1.95, 1.945, 1.944, 1.943, 1.942, 1.942, 1.942, 1.942, 1.942, 1.938, 1.938, 1.938, 1.938, 1.937, 1.936, 1.936, 1.936, 1.937, 1.938, 1.942, 1.942, 1.942, 1.943, 1.944, 1.945, 1.949, 1.949, 1.949, 1.95, 1.951, 1.952, 1.951, 1.951, 1.95, 1.949, 1.945, 1.945, 1.945, 1.945, 1.945, 1.944, 1.943, 1.943, 1.942, 1.942, 1.942, 1.938, 1.938, 1.938, 1.942, 1.942, 1.942, 1.942, 1.942, 1.942, 1.942, 1.938, 1.938, 1.938, 1.938, 1.937, 1.936, 1.935, 1.935, 1.935, 1.935, 1.935, 1.93, 1.929, 1.928, 1.928, 1.924, 1.923, 1.922, 1.922, 1.922, 1.923, 1.924, 1.928, 1.928, 1.929, 1.929, 1.929, 1.928, 1.923, 1.922, 1.916, 1.915, 1.913, 1.912, 1.907, 1.907, 1.911, 1.911, 1.912, 1.914, 1.915, 1.916, 1.917, 1.921, 1.922, 1.923, 1.928, 1.928, 1.929, 1.93, 1.93, 1.929, 1.929, 1.928, 1.924, 1.924, 1.924, 1.924, 1.924, 1.924, 1.924, 1.928, 1.928, 1.928, 1.923, 1.923, 1.922, 1.921, 1.916, 1.914, 1.912, 1.911, 1.906, 1.905, 1.904, 1.904, 1.904, 1.905, 1.906, 1.907, 1.911, 1.911, 1.911, 1.911, 1.906, 1.905, 1.899, 1.898, 1.897, 1.896, 1.889, 1.889, 1.885, 1.885, 1.884, 1.88, 1.88, 1.884, 1.884, 1.885, 1.885, 1.886, 1.887, 1.889, 1.889, 1.894, 1.894, 1.894, 1.894, 1.894, 1.894
1.985, 1.985, 1.985, 1.985, 1.985, 1.985, 1.989, 1.989, 1.989, 1.985, 1.985, 1.981, 1.98, 1.979, 1.979, 1.98, 1.98, 1.985, 1.99, 1.991, 1.996, 2, 2, 2, 1.996, 1.991, 1.99, 1.981, 1.98, 1.974, 1.974, 1.974, 1.974, 1.974, 1.974, 1.974, 1.974, 1.978, 1.979, 1.979, 1.979, 1.978, 1.978, 1.978, 1.974, 1.974, 1.974, 1.978, 1.979, 1.98, 1.981, 1.981, 1.985, 1.989, 1.989, 1.99, 1.991, 1.992, 1.996, 1.996, 1.996, 1.996, 1.996, 1.996, 1.996, 1.991, 1.991, 1.99, 1.989, 1.989, 1.989, 1.989, 1.989, 1.989, 1.985, 1.985, 1.981, 1.981, 1.98, 1.979, 1.974, 1.974, 1.974, 1.974, 1.974, 1.979, 1.98, 1.98, 1.985, 1.989, 1.99, 1.991, 1.992, 1.992, 1.992, 1.992, 1.992, 1.991, 1.99, 1.989, 1.989, 1.985, 1.98, 1.979, 1.974, 1.974, 1.974, 1.974, 1.974, 1.979, 1.979, 1.98, 1.98, 1.989, 1.99, 1.99, 1.989, 1.989, 1.985, 1.981, 1.98, 1.974, 1.974, 1.969, 1.968, 1.967, 1.963, 1.962, 1.961, 1.96, 1.96, 1.956, 1.956, 1.956, 1.96, 1.96, 1.96, 1.961, 1.967, 1.968, 1.969, 1.974, 1.974, 1.974, 1.969, 1.968, 1.967, 1.962, 1.961, 1.96, 1.96, 1.96, 1.96, 1.96, 1.96, 1.96, 1.96, 1.96, 1.96, 1.96, 1.96, 1.961, 1.962, 1.963, 1.963, 1.967, 1.963, 1.962, 1.961, 1.96, 1.96, 1.96, 1.96, 1.96, 1.96, 1.96, 1.96, 1.96, 1.96, 1.96, 1.96, 1.956, 1.952, 1.952, 1.952, 1.952, 1.952, 1.952, 1.952, 1.952, 1.952, 1.952, 1.952, 1.952, 1.956, 1.956, 1.956, 1.96, 1.96, 1.96, 1.96, 1.961, 1.962, 1.963, 1.963, 1.963, 1.962, 1.961, 1.96, 1.96, 1.956, 1.952, 1.952, 1.951, 1.95, 1.949, 1.945, 1.945, 1.945, 1.945, 1.945, 1.945, 1.945, 1.945, 1.945, 1.945, 1.945, 1.945, 1.945, 1.949, 1.949, 1.949, 1.949, 1.95, 1.951, 1.956, 1.956, 1.961, 1.962, 1.963, 1.967, 1.963, 1.962, 1.962, 1.961, 1.96, 1.956, 1.956, 1.956, 1.956, 1.956, 1.96, 1.96, 1.96, 1.96, 1.956, 1.952, 1.951, 1.95, 1.944, 1.943, 1.943, 1.938, 1.938, 1.938, 1.938, 1.943, 1.944, 1.945, 1.952, 1.956, 1.956, 1.96, 1.96, 1.956, 1.956, 1.951, 1.95, 1.945, 1.945, 1.944, 1.943, 1.943, 1.942, 1.942, 1.942, 1.938, 1.938, 1.938, 1.938, 1.938, 1.937, 1.937, 1.937, 1.938, 1.938, 1.942, 1.942, 1.942, 1.943, 1.944, 1.945, 1.949, 1.949, 1.949, 1.95, 1.951, 1.951, 1.951, 1.95, 1.949, 1.949, 1.945, 1.945, 1.945, 1.945, 1.944, 1.943, 1.942, 1.942, 1.938, 1.938, 1.938, 1.938, 1.938, 1.938, 1.938, 1.942, 1.942, 1.942, 1.942, 1.942, 1.942, 1.942, 1.938, 1.938, 1.938, 1.937, 1.936, 1.935, 1.935, 1.935, 1.935, 1.935, 1.93, 1.929, 1.928, 1.928, 1.923, 1.922, 1.922, 1.921, 1.922, 1.923, 1.924, 1.924, 1.924, 1.924, 1.928, 1.928, 1.928, 1.923, 1.922, 1.916, 1.914, 1.912, 1.912, 1.907, 1.907, 1.911, 1.911, 1.912, 1.914, 1.915, 1.916, 1.917, 1.921, 1.922, 1.923, 1.928, 1.929, 1.93, 1.93, 1.931, 1.93, 1.93, 1.929, 1.928, 1.928, 1.928, 1.928, 1.928, 1.928, 1.928, 1.928, 1.928, 1.928, 1.928, 1.923, 1.923, 1.922, 1.916, 1.915, 1.911, 1.907, 1.906, 1.905, 1.904, 1.904, 1.904, 1.905, 1.906, 1.907, 1.907, 1.911, 1.911, 1.911, 1.907, 1.906, 1.905, 1.899, 1.898, 1.897, 1.89, 1.889, 1.887, 1.886, 1.885, 1.885, 1.885, 1.885, 1.885, 1.886, 1.887, 1.888, 1.888, 1.889, 1.89, 1.89, 1.894, 1.894, 1.894, 1.894, 1.894
1.985, 1.985, 1.985, 1.985, 1.985, 1.985, 1.989, 1.989, 1.989, 1.985, 1.985, 1.981, 1.981, 1.98, 1.98, 1.981, 1.985, 1.985, 1.99, 1.991, 1.996, 2, 2.004, 2, 1.996, 1.991, 1.99, 1.985, 1.98, 1.979, 1.974, 1.974, 1.974, 1.974, 1.974, 1.974, 1.974, 1.979, 1.98, 1.98, 1.98, 1.979, 1.979, 1.978, 1.978, 1.978, 1.978, 1.978, 1.979, 1.98, 1.981, 1.985, 1.985, 1.989, 1.99, 1.991, 1.992, 1.992, 1.996, 1.996, 1.996, 1.996, 1.996, 1.996, 1.996, 1.996, 1.991, 1.991, 1.99, 1.989, 1.989, 1.989, 1.989, 1.985, 1.985, 1.981, 1.981, 1.98, 1.979, 1.974, 1.974, 1.974, 1.974, 1.974, 1.974, 1.974, 1.979, 1.98, 1.981, 1.989, 1.99, 1.991, 1.991, 1.992, 1.992, 1.992, 1.992, 1.992, 1.991, 1.99, 1.989, 1.985, 1.98, 1.979, 1.974, 1.974, 1.974, 1.974, 1.974, 1.974, 1.974, 1.979, 1.98, 1.981, 1.985, 1.989, 1.985, 1.985, 1.981, 1.98, 1.98, 1.974, 1.974, 1.969, 1.968, 1.967, 1.963, 1.962, 1.961, 1.96, 1.96, 1.96, 1.96, 1.96, 1.96, 1.96, 1.96, 1.961, 1.962, 1.967, 1.968, 1.969, 1.969, 1.974, 1.969, 1.968, 1.967, 1.962, 1.961, 1.96, 1.96, 1.96, 1.96, 1.96, 1.96, 1.96, 1.96, 1.96, 1.96, 1.96, 1.96, 1.961, 1.962, 1.963, 1.963, 1.967, 1.963, 1.962, 1.961, 1.961, 1.96, 1.96, 1.96, 1.96, 1.96, 1.96, 1.96, 1.96, 1.96, 1.96, 1.96, 1.956, 1.956, 1.952, 1.952, 1.952, 1.952, 1.952, 1.952, 1.952, 1.952, 1.952, 1.952, 1.956, 1.956, 1.956, 1.96, 1.96, 1.96, 1.96, 1.96, 1.961, 1.962, 1.963, 1.963, 1.963, 1.963, 1.962, 1.961, 1.96, 1.956, 1.952, 1.952, 1.951, 1.95, 1.949, 1.945, 1.945, 1.945, 1.945, 1.945, 1.945, 1.945, 1.945, 1.949, 1.949, 1.949, 1.949, 1.949, 1.949, 1.949, 1.949, 1.949, 1.95, 1.951, 1.956, 1.956, 1.961, 1.962, 1.963, 1.967, 1.967, 1.967, 1.962, 1.961, 1.96, 1.96, 1.956, 1.956, 1.956, 1.96, 1.96, 1.96, 1.96, 1.96, 1.956, 1.952, 1.951, 1.95, 1.945, 1.944, 1.943, 1.938, 1.938, 1.938, 1.938, 1.943, 1.944, 1.945, 1.952, 1.956, 1.96, 1.96, 1.96, 1.956, 1.956, 1.951, 1.95, 1.945, 1.945, 1.945, 1.944, 1.944, 1.943, 1.942, 1.942, 1.938, 1.938, 1.938, 1.938, 1.938, 1.938, 1.938, 1.938, 1.938, 1.942, 1.942, 1.942, 1.943, 1.943, 1.944, 1.945, 1.949, 1.949, 1.949, 1.95, 1.951, 1.951, 1.95, 1.949, 1.949, 1.945, 1.945, 1.945, 1.945, 1.944, 1.943, 1.942, 1.942, 1.938, 1.938, 1.938, 1.938, 1.938, 1.938, 1.938, 1.938, 1.938, 1.942, 1.942, 1.942, 1.942, 1.942, 1.942, 1.938, 1.938, 1.938, 1.938, 1.937, 1.936, 1.935, 1.935, 1.935, 1.935, 1.93, 1.929, 1.928, 1.924, 1.923, 1.922, 1.921, 1.921, 1.921, 1.922, 1.923, 1.924, 1.924, 1.924, 1.924, 1.928, 1.923, 1.922, 1.917, 1.916, 1.914, 1.912, 1.911, 1.907, 1.907, 1.911, 1.911, 1.912, 1.914, 1.915, 1.916, 1.917, 1.921, 1.922, 1.923, 1.928, 1.929, 1.93, 1.931, 1.931, 1.931, 1.93, 1.93, 1.929, 1.929, 1.928, 1.928, 1.929, 1.929, 1.929, 1.929, 1.929, 1.929, 1.929, 1.928, 1.923, 1.922, 1.921, 1.916, 1.911, 1.907, 1.906, 1.905, 1.9, 1.9, 1.9, 1.904, 1.905, 1.906, 1.907, 1.911, 1.911, 1.911, 1.907, 1.906, 1.905, 1.899, 1.899, 1.898, 1.89, 1.889, 1.888, 1.888, 1.887, 1.887, 1.887, 1.887, 1.887, 1.888, 1.889, 1.889, 1.889, 1.89, 1.89, 1.89, 1.89, 1.894, 1.894, 1.894, 1.894
1.985, 1.985, 1.981, 1.981, 1.985, 1.985, 1.985, 1.989, 1.989, 1.985, 1.985, 1.981, 1.981, 1.981, 1.981, 1.981, 1.985, 1.99, 1.991, 1.996, 2, 2.004, 2.004, 2, 1.996, 1.996, 1.989, 1.985, 1.98, 1.979, 1.974, 1.974, 1.974, 1.974, 1.974, 1.974, 1.974, 1.979, 1.98, 1.98, 1.98, 1.98, 1.98, 1.979, 1.978, 1.978, 1.978, 1.979, 1.979, 1.98, 1.981, 1.985, 1.985, 1.989, 1.99, 1.991, 1.992, 1.992, 1.996, 1.996, 1.996, 1.996, 1.996, 1.996, 1.996, 1.996, 1.992, 1.991, 1.99, 1.989, 1.989, 1.989, 1.989, 1.985, 1.985, 1.981, 1.98, 1.979, 1.974, 1.974, 1.974, 1.969, 1.969, 1.969, 1.969, 1.974, 1.974, 1.979, 1.98, 1.985, 1.989, 1.99, 1.991, 1.991, 1.991, 1.992, 1.992, 1.992, 1.991, 1.99, 1.989, 1.985, 1.98, 1.979, 1.974, 1.974, 1.97, 1.969, 1.969, 1.974, 1.974, 1.974, 1.979, 1.98, 1.98, 1.981, 1.981, 1.98, 1.98, 1.979, 1.974, 1.974, 1.97, 1.969, 1.968, 1.967, 1.963, 1.962, 1.961, 1.96, 1.96, 1.96, 1.96, 1.96, 1.96, 1.96, 1.96, 1.961, 1.962, 1.967, 1.967, 1.968, 1.969, 1.969, 1.969, 1.968, 1.967, 1.962, 1.961, 1.96, 1.96, 1.96, 1.96, 1.96, 1.96, 1.96, 1.96, 1.96, 1.96, 1.96, 1.96, 1.961, 1.962, 1.963, 1.963, 1.967, 1.963, 1.963, 1.962, 1.961, 1.961, 1.96, 1.96, 1.96, 1.96, 1.96, 1.96, 1.96, 1.96, 1.96, 1.96, 1.956, 1.956, 1.952, 1.952, 1.952, 1.952, 1.952, 1.952, 1.952, 1.952, 1.952, 1.952, 1.956, 1.956, 1.956, 1.96, 1.96, 1.96, 1.96, 1.96, 1.961, 1.962, 1.963, 1.963, 1.963, 1.963, 1.962, 1.961, 1.96, 1.956, 1.952, 1.952, 1.951, 1.95, 1.949, 1.945, 1.945, 1.945, 1.949, 1.949, 1.949, 1.949, 1.949, 1.95, 1.95, 1.95, 1.95, 1.95, 1.949, 1.949, 1.949, 1.95, 1.951, 1.952, 1.956, 1.956, 1.961, 1.962, 1.967, 1.967, 1.967, 1.967, 1.963, 1.962, 1.961, 1.96, 1.956, 1.956, 1.956, 1.956, 1.956, 1.96, 1.96, 1.96, 1.956, 1.952, 1.951, 1.95, 1.945, 1.944, 1.943, 1.943, 1.942, 1.942, 1.943, 1.943, 1.944, 1.95, 1.951, 1.956, 1.96, 1.96, 1.96, 1.956, 1.956, 1.951, 1.95, 1.945, 1.945, 1.945, 1.945, 1.945, 1.944, 1.943, 1.942, 1.942, 1.938, 1.938, 1.938, 1.938, 1.938, 1.938, 1.938, 1.942, 1.942, 1.942, 1.943, 1.943, 1.944, 1.945, 1.949, 1.949, 1.949, 1.949, 1.949, 1.95, 1.95, 1.949, 1.949, 1.949, 1.945, 1.945, 1.945, 1.945, 1.944, 1.943, 1.942, 1.938, 1.938, 1.938, 1.938, 1.938, 1.938, 1.938, 1.938, 1.938, 1.938, 1.942, 1.942, 1.942, 1.942, 1.942, 1.942, 1.938, 1.938, 1.938, 1.938, 1.937, 1.936, 1.935, 1.935, 1.935, 1.935, 1.93, 1.929, 1.928, 1.924, 1.923, 1.922, 1.917, 1.917, 1.917, 1.922, 1.922, 1.923, 1.923, 1.923, 1.923, 1.924, 1.923, 1.922, 1.917, 1.916, 1.914, 1.912, 1.912, 1.907, 1.907, 1.911, 1.912, 1.913, 1.914, 1.915, 1.916, 1.917, 1.921, 1.922, 1.923, 1.928, 1.929, 1.93, 1.931, 1.935, 1.935, 1.935, 1.931, 1.93, 1.93, 1.929, 1.929, 1.93, 1.93, 1.93, 1.93, 1.93, 1.93, 1.93, 1.929, 1.928, 1.922, 1.921, 1.917, 1.911, 1.906, 1.905, 1.904, 1.9, 1.9, 1.9, 1.904, 1.905, 1.906, 1.907, 1.911, 1.911, 1.911, 1.911, 1.906, 1.905, 1.905, 1.9, 1.899, 1.895, 1.895, 1.889, 1.889, 1.889, 1.889, 1.889, 1.889, 1.889, 1.889, 1.889, 1.89, 1.89, 1.89, 1.89, 1.89, 1.89, 1.89, 1.89, 1.889, 1.889
1.981, 1.981, 1.981, 1.981, 1.981, 1.985, 1.985, 1.985, 1.985, 1.985, 1.985, 1.981, 1.981, 1.981, 1.981, 1.985, 1.985, 1.99, 1.991, 1.996, 2, 2.004, 2.004, 2, 1.996, 1.991, 1.99, 1.985, 1.98, 1.979, 1.974, 1.974, 1.974, 1.974, 1.974, 1.974, 1.978, 1.979, 1.98, 1.985, 1.985, 1.985, 1.98, 1.98, 1.979, 1.979, 1.979, 1.979, 1.98, 1.981, 1.981, 1.985, 1.985, 1.989, 1.99, 1.991, 1.992, 1.992, 1.996, 1.996, 2, 2, 1.996, 1.996, 1.996, 1.996, 1.992, 1.992, 1.991, 1.99, 1.989, 1.989, 1.989, 1.985, 1.985, 1.981, 1.98, 1.979, 1.974, 1.974, 1.969, 1.968, 1.968, 1.968, 1.968, 1.969, 1.974, 1.979, 1.98, 1.981, 1.985, 1.989, 1.99, 1.99, 1.99, 1.991, 1.992, 1.992, 1.991, 1.99, 1.989, 1.985, 1.98, 1.979, 1.974, 1.97, 1.969, 1.968, 1.968, 1.969, 1.969, 1.969, 1.974, 1.974, 1.98, 1.98, 1.98, 1.979, 1.979, 1.974, 1.974, 1.974, 1.97, 1.969, 1.968, 1.967, 1.963, 1.962, 1.961, 1.96, 1.96, 1.96, 1.96, 1.96, 1.96, 1.96, 1.96, 1.96, 1.961, 1.962, 1.967, 1.967, 1.968, 1.968, 1.968, 1.967, 1.967, 1.962, 1.961, 1.96, 1.96, 1.96, 1.96, 1.96, 1.96, 1.96, 1.96, 1.96, 1.96, 1.96, 1.96, 1.961, 1.962, 1.963, 1.963, 1.967, 1.963, 1.963, 1.963, 1.962, 1.962, 1.961, 1.961, 1.96, 1.961, 1.961, 1.961, 1.96, 1.96, 1.96, 1.96, 1.956, 1.956, 1.952, 1.952, 1.952, 1.952, 1.952, 1.952, 1.952, 1.952, 1.952, 1.952, 1.956, 1.956, 1.96, 1.96, 1.96, 1.96, 1.96, 1.961, 1.962, 1.963, 1.963, 1.963, 1.963, 1.963, 1.962, 1.961, 1.96, 1.956, 1.952, 1.952, 1.951, 1.95, 1.949, 1.945, 1.945, 1.949, 1.949, 1.949, 1.949, 1.95, 1.95, 1.951, 1.951, 1.951, 1.951, 1.951, 1.95, 1.95, 1.95, 1.95, 1.951, 1.952, 1.956, 1.956, 1.961, 1.962, 1.967, 1.967, 1.967, 1.967, 1.963, 1.962, 1.961, 1.96, 1.956, 1.956, 1.956, 1.956, 1.956, 1.96, 1.96, 1.96, 1.956, 1.952, 1.951, 1.95, 1.945, 1.945, 1.944, 1.943, 1.943, 1.943, 1.943, 1.944, 1.945, 1.951, 1.952, 1.956, 1.96, 1.96, 1.96, 1.956, 1.952, 1.951, 1.95, 1.945, 1.945, 1.945, 1.945, 1.945, 1.945, 1.944, 1.943, 1.942, 1.942, 1.938, 1.938, 1.938, 1.938, 1.938, 1.942, 1.943, 1.943, 1.943, 1.944, 1.944, 1.945, 1.945, 1.949, 1.949, 1.949, 1.949, 1.949, 1.949, 1.949, 1.949, 1.949, 1.945, 1.945, 1.945, 1.945, 1.944, 1.943, 1.942, 1.942, 1.938, 1.938, 1.938, 1.938, 1.938, 1.938, 1.938, 1.938, 1.938, 1.938, 1.942, 1.942, 1.942, 1.942, 1.942, 1.942, 1.938, 1.938, 1.938, 1.937, 1.936, 1.935, 1.935, 1.935, 1.935, 1.935, 1.93, 1.929, 1.924, 1.923, 1.922, 1.917, 1.917, 1.917, 1.917, 1.917, 1.921, 1.922, 1.922, 1.922, 1.922, 1.923, 1.923, 1.922, 1.917, 1.916, 1.914, 1.913, 1.912, 1.911, 1.911, 1.912, 1.912, 1.914, 1.915, 1.916, 1.917, 1.917, 1.921, 1.922, 1.923, 1.928, 1.929, 1.93, 1.931, 1.935, 1.935, 1.935, 1.931, 1.931, 1.931, 1.93, 1.93, 1.931, 1.931, 1.931, 1.931, 1.931, 1.931, 1.93, 1.93, 1.929, 1.923, 1.922, 1.917, 1.912, 1.906, 1.905, 1.904, 1.9, 1.9, 1.9, 1.904, 1.905, 1.906, 1.907, 1.911, 1.911, 1.911, 1.911, 1.911, 1.906, 1.905, 1.904, 1.899, 1.897, 1.897, 1.896, 1.895, 1.895, 1.895, 1.895, 1.894, 1.894, 1.895, 1.895, 1.894, 1.89, 1.89, 1.89, 1.89, 1.889, 1.89, 1.889, 1.888, 1.887
1.981, 1.981, 1.981, 1.981, 1.981, 1.981, 1.985, 1.985, 1.985, 1.985, 1.985, 1.985, 1.985, 1.985, 1.985, 1.985, 1.989, 1.99, 1.991, 1.996, 2, 2.004, 2, 2, 1.996, 1.991, 1.99, 1.985, 1.98, 1.979, 1.978, 1.974, 1.974, 1.974, 1.974, 1.974, 1.978, 1.979, 1.98, 1.985, 1.985, 1.985, 1.985, 1.985, 1.98, 1.98, 1.98, 1.98, 1.981, 1.981, 1.981, 1.985, 1.989, 1.989, 1.99, 1.991, 1.992, 1.996, 1.996, 1.996, 2, 2, 1.996, 1.996, 1.996, 1.996, 1.996, 1.992, 1.991, 1.99, 1.989, 1.989, 1.985, 1.985, 1.981, 1.98, 1.979, 1.974, 1.974, 1.969, 1.968, 1.968, 1.967, 1.967, 1.967, 1.968, 1.974, 1.974, 1.979, 1.98, 1.985, 1.989, 1.989, 1.989, 1.989, 1.99, 1.991, 1.991, 1.991, 1.99, 1.989, 1.985, 1.98, 1.979, 1.974, 1.969, 1.968, 1.968, 1.967, 1.968, 1.968, 1.968, 1.969, 1.974, 1.974, 1.974, 1.974, 1.974, 1.974, 1.974, 1.974, 1.974, 1.969, 1.968, 1.967, 1.967, 1.963, 1.962, 1.961, 1.96, 1.96, 1.96, 1.96, 1.96, 1.96, 1.96, 1.96, 1.96, 1.961, 1.962, 1.967, 1.967, 1.967, 1.967, 1.967, 1.967, 1.967, 1.962, 1.961, 1.96, 1.96, 1.96, 1.96, 1.956, 1.956, 1.956, 1.956, 1.956, 1.96, 1.96, 1.96, 1.961, 1.962, 1.963, 1.963, 1.963, 1.963, 1.963, 1.963, 1.963, 1.963, 1.962, 1.961, 1.961, 1.962, 1.962, 1.962, 1.961, 1.96, 1.96, 1.96, 1.96, 1.956, 1.956, 1.952, 1.952, 1.952, 1.952, 1.952, 1.952, 1.952, 1.952, 1.952, 1.956, 1.956, 1.96, 1.96, 1.96, 1.96, 1.96, 1.961, 1.962, 1.963, 1.963, 1.963, 1.963, 1.962, 1.962, 1.961, 1.96, 1.956, 1.952, 1.952, 1.951, 1.95, 1.949, 1.945, 1.945, 1.949, 1.949, 1.949, 1.95, 1.951, 1.951, 1.952, 1.952, 1.952, 1.952, 1.952, 1.951, 1.951, 1.951, 1.951, 1.952, 1.952, 1.956, 1.956, 1.961, 1.962, 1.967, 1.967, 1.967, 1.967, 1.967, 1.962, 1.961, 1.96, 1.956, 1.956, 1.956, 1.956, 1.956, 1.96, 1.96, 1.96, 1.956, 1.956, 1.952, 1.951, 1.95, 1.945, 1.945, 1.944, 1.944, 1.944, 1.944, 1.945, 1.95, 1.951, 1.956, 1.96, 1.96, 1.96, 1.96, 1.956, 1.952, 1.951, 1.95, 1.945, 1.945, 1.945, 1.945, 1.945, 1.945, 1.944, 1.943, 1.943, 1.942, 1.942, 1.942, 1.942, 1.942, 1.942, 1.943, 1.944, 1.944, 1.944, 1.945, 1.945, 1.945, 1.949, 1.949, 1.949, 1.949, 1.949, 1.949, 1.949, 1.949, 1.949, 1.949, 1.945, 1.945, 1.945, 1.945, 1.944, 1.943, 1.942, 1.938, 1.938, 1.938, 1.938, 1.938, 1.938, 1.938, 1.938, 1.938, 1.938, 1.938, 1.942, 1.942, 1.942, 1.942, 1.942, 1.938, 1.938, 1.938, 1.938, 1.937, 1.936, 1.935, 1.935, 1.935, 1.935, 1.931, 1.93, 1.929, 1.924, 1.923, 1.922, 1.917, 1.916, 1.916, 1.916, 1.916, 1.917, 1.921, 1.921, 1.921, 1.922, 1.923, 1.923, 1.922, 1.916, 1.915, 1.914, 1.914, 1.913, 1.912, 1.912, 1.912, 1.913, 1.915, 1.916, 1.917, 1.917, 1.917, 1.922, 1.922, 1.923, 1.928, 1.929, 1.93, 1.931, 1.935, 1.935, 1.935, 1.935, 1.931, 1.931, 1.931, 1.931, 1.935, 1.935, 1.935, 1.935, 1.935, 1.931, 1.931, 1.93, 1.929, 1.923, 1.922, 1.917, 1.913, 1.906, 1.905, 1.904, 1.9, 1.9, 1.9, 1.904, 1.905, 1.906, 1.907, 1.911, 1.911, 1.911, 1.911, 1.911, 1.906, 1.906, 1.905, 1.9, 1.899, 1.898, 1.897, 1.897, 1.897, 1.897, 1.896, 1.895, 1.895, 1.896, 1.896, 1.895, 1.894, 1.894, 1.89, 1.889, 1.887, 1.885, 1.885, 1.885, 1.885
1.98, 1.98, 1.98, 1.98, 1.98, 1.981, 1.981, 1.985, 1.985, 1.985, 1.985, 1.985, 1.985, 1.985, 1.985, 1.989, 1.989, 1.99, 1.991, 1.996, 2, 2, 2, 2, 1.996, 1.991, 1.99, 1.985, 1.98, 1.979, 1.978, 1.974, 1.974, 1.974, 1.974, 1.974, 1.978, 1.979, 1.98, 1.985, 1.985, 1.985, 1.985, 1.985, 1.985, 1.981, 1.981, 1.981, 1.981, 1.981, 1.985, 1.985, 1.989, 1.99, 1.991, 1.992, 1.996, 1.996, 1.996, 1.996, 1.996, 1.996, 1.996, 1.996, 1.996, 1.996, 1.996, 1.992, 1.991, 1.99, 1.989, 1.989, 1.985, 1.985, 1.98, 1.98, 1.979, 1.974, 1.969, 1.968, 1.968, 1.962, 1.962, 1.962, 1.962, 1.968, 1.969, 1.974, 1.974, 1.98, 1.981, 1.985, 1.989, 1.989, 1.989, 1.989, 1.99, 1.991, 1.991, 1.99, 1.989, 1.985, 1.98, 1.979, 1.974, 1.969, 1.968, 1.967, 1.967, 1.967, 1.967, 1.968, 1.968, 1.969, 1.969, 1.974, 1.974, 1.974, 1.974, 1.974, 1.974, 1.97, 1.969, 1.968, 1.967, 1.967, 1.963, 1.962, 1.961, 1.96, 1.96, 1.96, 1.96, 1.96, 1.96, 1.96, 1.96, 1.96, 1.961, 1.962, 1.962, 1.967, 1.967, 1.967, 1.967, 1.967, 1.967, 1.962, 1.961, 1.96, 1.96, 1.96, 1.956, 1.956, 1.956, 1.956, 1.956, 1.956, 1.956, 1.96, 1.96, 1.961, 1.962, 1.963, 1.963, 1.963, 1.963, 1.963, 1.963, 1.963, 1.963, 1.963, 1.962, 1.962, 1.963, 1.963, 1.962, 1.962, 1.961, 1.96, 1.96, 1.96, 1.96, 1.956, 1.956, 1.956, 1.956, 1.952, 1.952, 1.952, 1.952, 1.952, 1.956, 1.956, 1.956, 1.96, 1.96, 1.96, 1.96, 1.96, 1.961, 1.962, 1.963, 1.963, 1.963, 1.962, 1.962, 1.961, 1.96, 1.956, 1.952, 1.952, 1.951, 1.95, 1.949, 1.945, 1.945, 1.945, 1.949, 1.949, 1.95, 1.951, 1.952, 1.952, 1.952, 1.952, 1.952, 1.952, 1.952, 1.952, 1.952, 1.952, 1.952, 1.952, 1.952, 1.956, 1.96, 1.961, 1.962, 1.967, 1.967, 1.967, 1.967, 1.967, 1.962, 1.961, 1.96, 1.96, 1.956, 1.956, 1.96, 1.96, 1.96, 1.96, 1.96, 1.956, 1.956, 1.952, 1.951, 1.95, 1.95, 1.945, 1.945, 1.945, 1.945, 1.95, 1.951, 1.951, 1.956, 1.96, 1.96, 1.96, 1.96, 1.956, 1.952, 1.952, 1.951, 1.95, 1.945, 1.945, 1.945, 1.945, 1.945, 1.945, 1.945, 1.944, 1.943, 1.943, 1.943, 1.943, 1.943, 1.943, 1.943, 1.944, 1.945, 1.945, 1.945, 1.945, 1.945, 1.949, 1.949, 1.949, 1.949, 1.949, 1.949, 1.949, 1.949, 1.949, 1.949, 1.945, 1.945, 1.945, 1.945, 1.944, 1.943, 1.942, 1.938, 1.938, 1.938, 1.938, 1.938, 1.938, 1.938, 1.938, 1.938, 1.938, 1.938, 1.938, 1.938, 1.942, 1.942, 1.942, 1.938, 1.938, 1.938, 1.938, 1.938, 1.937, 1.936, 1.936, 1.935, 1.935, 1.935, 1.931, 1.93, 1.929, 1.923, 1.922, 1.922, 1.916, 1.915, 1.915, 1.915, 1.915, 1.916, 1.917, 1.917, 1.921, 1.921, 1.922, 1.922, 1.921, 1.916, 1.915, 1.915, 1.914, 1.914, 1.913, 1.913, 1.914, 1.915, 1.916, 1.917, 1.917, 1.917, 1.921, 1.922, 1.923, 1.924, 1.928, 1.929, 1.93, 1.931, 1.935, 1.935, 1.935, 1.935, 1.935, 1.935, 1.935, 1.935, 1.935, 1.935, 1.936, 1.936, 1.936, 1.935, 1.935, 1.931, 1.93, 1.923, 1.922, 1.916, 1.915, 1.906, 1.905, 1.904, 1.9, 1.9, 1.9, 1.904, 1.905, 1.906, 1.907, 1.911, 1.912, 1.912, 1.912, 1.912, 1.911, 1.911, 1.905, 1.905, 1.905, 1.904, 1.899, 1.899, 1.899, 1.899, 1.899, 1.899, 1.898, 1.897, 1.897, 1.895, 1.894, 1.89, 1.889, 1.888, 1.886, 1.885, 1.884, 1.879, 1.879
1.979, 1.979, 1.979, 1.979, 1.979, 1.98, 1.981, 1.981, 1.985, 1.985, 1.985, 1.985, 1.985, 1.985, 1.989, 1.989, 1.99, 1.991, 1.996, 1.996, 2, 2, 2, 1.996, 1.996, 1.991, 1.99, 1.985, 1.981, 1.98, 1.979, 1.974, 1.974, 1.974, 1.974, 1.974, 1.978, 1.979, 1.98, 1.985, 1.985, 1.985, 1.985, 1.985, 1.985, 1.985, 1.985, 1.981, 1.981, 1.981, 1.985, 1.985, 1.989, 1.99, 1.991, 1.992, 1.992, 1.996, 1.996, 1.996, 1.996, 1.996, 1.996, 1.996, 1.996, 1.996, 1.996, 1.992, 1.991, 1.99, 1.989, 1.985, 1.985, 1.985, 1.98, 1.979, 1.974, 1.969, 1.968, 1.968, 1.962, 1.961, 1.961, 1.961, 1.961, 1.962, 1.968, 1.969, 1.974, 1.98, 1.98, 1.981, 1.985, 1.985, 1.989, 1.989, 1.989, 1.99, 1.99, 1.989, 1.989, 1.985, 1.98, 1.979, 1.974, 1.969, 1.968, 1.967, 1.963, 1.962, 1.962, 1.962, 1.967, 1.968, 1.968, 1.969, 1.969, 1.969, 1.97, 1.974, 1.974, 1.97, 1.969, 1.968, 1.967, 1.967, 1.967, 1.962, 1.961, 1.96, 1.96, 1.96, 1.96, 1.96, 1.96, 1.96, 1.96, 1.96, 1.96, 1.961, 1.962, 1.962, 1.967, 1.967, 1.967, 1.967, 1.967, 1.963, 1.962, 1.961, 1.96, 1.96, 1.956, 1.956, 1.956, 1.956, 1.956, 1.956, 1.956, 1.96, 1.96, 1.961, 1.962, 1.963, 1.963, 1.967, 1.963, 1.963, 1.963, 1.963, 1.963, 1.963, 1.963, 1.963, 1.963, 1.963, 1.963, 1.963, 1.962, 1.961, 1.961, 1.961, 1.961, 1.96, 1.956, 1.956, 1.956, 1.956, 1.952, 1.952, 1.952, 1.952, 1.956, 1.956, 1.956, 1.96, 1.96, 1.96, 1.96, 1.96, 1.961, 1.962, 1.962, 1.962, 1.962, 1.961, 1.961, 1.96, 1.956, 1.952, 1.952, 1.951, 1.95, 1.95, 1.945, 1.945, 1.945, 1.945, 1.949, 1.95, 1.951, 1.952, 1.952, 1.952, 1.952, 1.956, 1.956, 1.956, 1.956, 1.952, 1.952, 1.952, 1.952, 1.952, 1.956, 1.956, 1.956, 1.961, 1.962, 1.962, 1.967, 1.967, 1.967, 1.967, 1.962, 1.961, 1.96, 1.96, 1.96, 1.96, 1.96, 1.96, 1.96, 1.96, 1.96, 1.956, 1.956, 1.952, 1.952, 1.951, 1.95, 1.95, 1.95, 1.95, 1.95, 1.951, 1.952, 1.956, 1.96, 1.96, 1.96, 1.96, 1.96, 1.956, 1.952, 1.951, 1.95, 1.949, 1.945, 1.945, 1.945, 1.945, 1.945, 1.945, 1.945, 1.945, 1.944, 1.944, 1.944, 1.944, 1.944, 1.944, 1.944, 1.945, 1.945, 1.949, 1.95, 1.949, 1.949, 1.949, 1.949, 1.949, 1.949, 1.949, 1.949, 1.949, 1.949, 1.949, 1.949, 1.945, 1.945, 1.945, 1.945, 1.944, 1.943, 1.942, 1.938, 1.938, 1.938, 1.938, 1.938, 1.938, 1.938, 1.938, 1.938, 1.938, 1.938, 1.938, 1.938, 1.938, 1.942, 1.942, 1.938, 1.938, 1.938, 1.938, 1.938, 1.938, 1.937, 1.936, 1.936, 1.935, 1.935, 1.931, 1.93, 1.929, 1.923, 1.922, 1.921, 1.915, 1.914, 1.914, 1.914, 1.914, 1.915, 1.916, 1.917, 1.917, 1.917, 1.921, 1.921, 1.921, 1.917, 1.916, 1.916, 1.915, 1.914, 1.914, 1.914, 1.915, 1.916, 1.917, 1.917, 1.917, 1.921, 1.922, 1.923, 1.924, 1.924, 1.928, 1.928, 1.929, 1.93, 1.935, 1.935, 1.935, 1.935, 1.935, 1.935, 1.935, 1.935, 1.935, 1.936, 1.937, 1.937, 1.937, 1.936, 1.935, 1.935, 1.93, 1.929, 1.922, 1.916, 1.915, 1.906, 1.905, 1.904, 1.9, 1.9, 1.9, 1.904, 1.905, 1.906, 1.907, 1.911, 1.912, 1.913, 1.913, 1.913, 1.912, 1.912, 1.906, 1.906, 1.906, 1.905, 1.905, 1.905, 1.905, 1.9, 1.9, 1.9, 1.899, 1.898, 1.898, 1.896, 1.895, 1.89, 1.889, 1.887, 1.885, 1.879, 1.879, 1.878, 1.877
1.979, 1.978, 1.978, 1.978, 1.979, 1.98, 1.981, 1.981, 1.985, 1.985, 1.985, 1.985, 1.985, 1.989, 1.989, 1.989, 1.99, 1.991, 1.996, 1.996, 2, 2, 1.996, 1.996, 1.991, 1.99, 1.989, 1.985, 1.981, 1.98, 1.979, 1.978, 1.974, 1.974, 1.974, 1.974, 1.978, 1.978, 1.979, 1.98, 1.985, 1.985, 1.985, 1.985, 1.985, 1.985, 1.985, 1.981, 1.981, 1.981, 1.985, 1.985, 1.989, 1.99, 1.991, 1.992, 1.992, 1.992, 1.992, 1.992, 1.992, 1.992, 1.992, 1.996, 1.996, 1.996, 1.996, 1.992, 1.991, 1.99, 1.989, 1.985, 1.985, 1.98, 1.979, 1.979, 1.974, 1.969, 1.968, 1.962, 1.961, 1.961, 1.96, 1.96, 1.96, 1.961, 1.967, 1.968, 1.974, 1.974, 1.98, 1.981, 1.981, 1.985, 1.985, 1.985, 1.989, 1.989, 1.989, 1.989, 1.989, 1.985, 1.98, 1.979, 1.974, 1.969, 1.968, 1.963, 1.962, 1.961, 1.961, 1.961, 1.961, 1.962, 1.967, 1.968, 1.968, 1.968, 1.969, 1.97, 1.97, 1.97, 1.969, 1.968, 1.967, 1.967, 1.967, 1.962, 1.961, 1.96, 1.96, 1.96, 1.96, 1.96, 1.96, 1.96, 1.96, 1.96, 1.96, 1.96, 1.961, 1.962, 1.962, 1.967, 1.967, 1.967, 1.967, 1.967, 1.962, 1.961, 1.96, 1.96, 1.96, 1.956, 1.956, 1.956, 1.956, 1.956, 1.956, 1.96, 1.96, 1.961, 1.962, 1.963, 1.963, 1.967, 1.967, 1.967, 1.967, 1.967, 1.967, 1.967, 1.967, 1.967, 1.967, 1.967, 1.967, 1.967, 1.963, 1.962, 1.962, 1.962, 1.962, 1.961, 1.96, 1.96, 1.96, 1.956, 1.956, 1.956, 1.952, 1.952, 1.956, 1.956, 1.956, 1.96, 1.96, 1.96, 1.96, 1.96, 1.961, 1.961, 1.961, 1.961, 1.961, 1.96, 1.96, 1.96, 1.956, 1.952, 1.951, 1.95, 1.95, 1.945, 1.945, 1.945, 1.945, 1.945, 1.949, 1.95, 1.951, 1.952, 1.952, 1.952, 1.956, 1.956, 1.956, 1.956, 1.956, 1.956, 1.956, 1.952, 1.952, 1.952, 1.956, 1.956, 1.956, 1.96, 1.961, 1.962, 1.962, 1.967, 1.967, 1.967, 1.962, 1.961, 1.96, 1.96, 1.96, 1.96, 1.96, 1.96, 1.96, 1.96, 1.96, 1.956, 1.956, 1.952, 1.952, 1.952, 1.951, 1.951, 1.951, 1.951, 1.951, 1.956, 1.956, 1.96, 1.961, 1.961, 1.96, 1.96, 1.956, 1.952, 1.951, 1.951, 1.95, 1.949, 1.949, 1.949, 1.949, 1.949, 1.945, 1.945, 1.945, 1.945, 1.945, 1.945, 1.945, 1.945, 1.945, 1.945, 1.945, 1.945, 1.95, 1.95, 1.95, 1.95, 1.95, 1.95, 1.95, 1.949, 1.949, 1.949, 1.949, 1.949, 1.949, 1.945, 1.945, 1.945, 1.945, 1.945, 1.945, 1.944, 1.943, 1.942, 1.938, 1.938, 1.938, 1.938, 1.938, 1.938, 1.938, 1.938, 1.938, 1.938, 1.938, 1.938, 1.938, 1.938, 1.942, 1.942, 1.942, 1.938, 1.938, 1.938, 1.938, 1.938, 1.938, 1.937, 1.937, 1.936, 1.935, 1.935, 1.93, 1.929, 1.923, 1.922, 1.916, 1.915, 1.914, 1.914, 1.913, 1.914, 1.914, 1.915, 1.916, 1.917, 1.917, 1.921, 1.921, 1.921, 1.917, 1.917, 1.917, 1.916, 1.915, 1.915, 1.915, 1.916, 1.916, 1.917, 1.917, 1.921, 1.921, 1.922, 1.923, 1.924, 1.924, 1.928, 1.928, 1.929, 1.93, 1.931, 1.935, 1.935, 1.935, 1.935, 1.935, 1.935, 1.935, 1.935, 1.936, 1.937, 1.937, 1.937, 1.937, 1.936, 1.935, 1.93, 1.929, 1.923, 1.916, 1.914, 1.912, 1.904, 1.904, 1.9, 1.9, 1.9, 1.904, 1.905, 1.906, 1.907, 1.912, 1.913, 1.914, 1.914, 1.914, 1.913, 1.912, 1.912, 1.907, 1.907, 1.906, 1.906, 1.906, 1.906, 1.906, 1.905, 1.905, 1.904, 1.904, 1.898, 1.897, 1.895, 1.89, 1.889, 1.887, 1.88, 1.879, 1.877, 1.877, 1.876
1.974, 1.974, 1.974, 1.974, 1.978, 1.979, 1.98, 1.981, 1.985, 1.985, 1.985, 1.989, 1.989, 1.989, 1.99, 1.99, 1.991, 1.992, 1.996, 1.996, 1.996, 1.996, 1.996, 1.991, 1.991, 1.99, 1.989, 1.985, 1.981, 1.98, 1.979, 1.978, 1.974, 1.974, 1.974, 1.974, 1.974, 1.978, 1.979, 1.98, 1.98, 1.985, 1.985, 1.985, 1.985, 1.985, 1.985, 1.981, 1.981, 1.981, 1.985, 1.985, 1.989, 1.989, 1.99, 1.991, 1.992, 1.992, 1.992, 1.992, 1.992, 1.992, 1.992, 1.992, 1.992, 1.996, 1.992, 1.992, 1.991, 1.99, 1.989, 1.985, 1.985, 1.98, 1.979, 1.974, 1.969, 1.968, 1.962, 1.961, 1.961, 1.956, 1.956, 1.956, 1.956, 1.961, 1.961, 1.968, 1.969, 1.974, 1.979, 1.98, 1.981, 1.981, 1.981, 1.981, 1.985, 1.985, 1.989, 1.989, 1.989, 1.985, 1.98, 1.979, 1.974, 1.969, 1.968, 1.962, 1.961, 1.961, 1.96, 1.96, 1.96, 1.961, 1.962, 1.962, 1.967, 1.967, 1.968, 1.969, 1.97, 1.97, 1.97, 1.969, 1.968, 1.967, 1.967, 1.962, 1.961, 1.96, 1.96, 1.96, 1.96, 1.96, 1.96, 1.96, 1.96, 1.96, 1.96, 1.96, 1.96, 1.961, 1.962, 1.963, 1.967, 1.967, 1.967, 1.967, 1.963, 1.962, 1.961, 1.96, 1.96, 1.956, 1.956, 1.956, 1.956, 1.956, 1.956, 1.96, 1.96, 1.961, 1.962, 1.963, 1.963, 1.967, 1.967, 1.967, 1.967, 1.967, 1.967, 1.967, 1.967, 1.967, 1.967, 1.967, 1.967, 1.967, 1.967, 1.967, 1.967, 1.963, 1.962, 1.962, 1.961, 1.961, 1.96, 1.96, 1.96, 1.956, 1.956, 1.956, 1.956, 1.956, 1.956, 1.96, 1.96, 1.96, 1.96, 1.96, 1.96, 1.96, 1.96, 1.96, 1.96, 1.96, 1.956, 1.956, 1.952, 1.951, 1.95, 1.949, 1.949, 1.945, 1.945, 1.945, 1.945, 1.945, 1.949, 1.95, 1.951, 1.952, 1.952, 1.952, 1.956, 1.956, 1.956, 1.956, 1.956, 1.956, 1.956, 1.952, 1.952, 1.952, 1.952, 1.956, 1.956, 1.956, 1.961, 1.961, 1.962, 1.962, 1.962, 1.962, 1.961, 1.96, 1.96, 1.96, 1.96, 1.96, 1.96, 1.96, 1.96, 1.96, 1.96, 1.96, 1.956, 1.956, 1.952, 1.952, 1.952, 1.952, 1.952, 1.952, 1.956, 1.96, 1.961, 1.961, 1.962, 1.962, 1.961, 1.96, 1.956, 1.951, 1.95, 1.95, 1.949, 1.949, 1.949, 1.949, 1.949, 1.949, 1.945, 1.945, 1.945, 1.945, 1.945, 1.945, 1.945, 1.945, 1.949, 1.949, 1.95, 1.95, 1.951, 1.951, 1.951, 1.951, 1.951, 1.951, 1.951, 1.95, 1.949, 1.949, 1.949, 1.949, 1.945, 1.945, 1.945, 1.945, 1.945, 1.945, 1.944, 1.943, 1.942, 1.942, 1.938, 1.938, 1.938, 1.938, 1.938, 1.938, 1.938, 1.938, 1.938, 1.938, 1.938, 1.938, 1.938, 1.942, 1.942, 1.942, 1.942, 1.942, 1.938, 1.938, 1.938, 1.938, 1.938, 1.938, 1.937, 1.937, 1.936, 1.935, 1.93, 1.929, 1.923, 1.922, 1.916, 1.915, 1.914, 1.912, 1.912, 1.912, 1.913, 1.914, 1.916, 1.916, 1.921, 1.921, 1.921, 1.921, 1.921, 1.917, 1.917, 1.917, 1.916, 1.916, 1.916, 1.917, 1.921, 1.921, 1.922, 1.922, 1.922, 1.922, 1.923, 1.924, 1.924, 1.928, 1.928, 1.929, 1.93, 1.931, 1.931, 1.935, 1.935, 1.935, 1.935, 1.935, 1.935, 1.936, 1.937, 1.937, 1.938, 1.937, 1.937, 1.936, 1.935, 1.93, 1.929, 1.924, 1.916, 1.914, 1.912, 1.905, 1.904, 1.9, 1.9, 1.9, 1.904, 1.905, 1.906, 1.907, 1.912, 1.913, 1.914, 1.914, 1.914, 1.915, 1.914, 1.913, 1.912, 1.912, 1.912, 1.912, 1.907, 1.907, 1.907, 1.906, 1.906, 1.905, 1.905, 1.899, 1.898, 1.896, 1.889, 1.888, 1.886, 1.879, 1.877, 1.876, 1.875, 1.874
1.974, 1.974, 1.974, 1.974, 1.974, 1.979, 1.979, 1.98, 1.985, 1.985, 1.985, 1.989, 1.99, 1.99, 1.991, 1.991, 1.992, 1.992, 1.996, 1.996, 1.996, 1.992, 1.992, 1.991, 1.99, 1.989, 1.989, 1.985, 1.981, 1.98, 1.979, 1.978, 1.974, 1.974, 1.974, 1.974, 1.974, 1.978, 1.978, 1.979, 1.98, 1.985, 1.985, 1.985, 1.985, 1.985, 1.985, 1.981, 1.981, 1.981, 1.985, 1.985, 1.989, 1.989, 1.99, 1.991, 1.991, 1.991, 1.991, 1.991, 1.991, 1.991, 1.991, 1.991, 1.992, 1.992, 1.992, 1.992, 1.991, 1.99, 1.989, 1.985, 1.985, 1.98, 1.979, 1.974, 1.969, 1.968, 1.962, 1.961, 1.956, 1.952, 1.952, 1.952, 1.956, 1.96, 1.961, 1.968, 1.969, 1.974, 1.974, 1.979, 1.98, 1.98, 1.981, 1.981, 1.981, 1.981, 1.985, 1.985, 1.985, 1.985, 1.98, 1.979, 1.974, 1.968, 1.967, 1.962, 1.961, 1.96, 1.96, 1.96, 1.96, 1.96, 1.961, 1.961, 1.962, 1.967, 1.967, 1.968, 1.969, 1.97, 1.97, 1.969, 1.968, 1.967, 1.967, 1.962, 1.961, 1.96, 1.96, 1.96, 1.96, 1.96, 1.96, 1.96, 1.96, 1.96, 1.96, 1.96, 1.96, 1.96, 1.961, 1.962, 1.967, 1.967, 1.967, 1.967, 1.967, 1.962, 1.962, 1.961, 1.96, 1.96, 1.96, 1.956, 1.956, 1.956, 1.96, 1.96, 1.96, 1.961, 1.962, 1.963, 1.963, 1.967, 1.967, 1.967, 1.967, 1.967, 1.967, 1.967, 1.967, 1.967, 1.967, 1.967, 1.967, 1.967, 1.967, 1.967, 1.967, 1.967, 1.967, 1.967, 1.962, 1.962, 1.961, 1.961, 1.96, 1.96, 1.956, 1.956, 1.956, 1.956, 1.96, 1.96, 1.96, 1.96, 1.96, 1.96, 1.96, 1.96, 1.96, 1.96, 1.96, 1.956, 1.956, 1.952, 1.952, 1.951, 1.95, 1.949, 1.949, 1.945, 1.945, 1.945, 1.945, 1.945, 1.95, 1.951, 1.952, 1.952, 1.952, 1.956, 1.956, 1.956, 1.956, 1.956, 1.956, 1.956, 1.956, 1.952, 1.952, 1.952, 1.952, 1.952, 1.956, 1.956, 1.956, 1.96, 1.961, 1.961, 1.961, 1.961, 1.96, 1.96, 1.96, 1.96, 1.96, 1.96, 1.96, 1.96, 1.96, 1.96, 1.96, 1.96, 1.96, 1.956, 1.956, 1.956, 1.956, 1.956, 1.956, 1.956, 1.96, 1.961, 1.962, 1.962, 1.962, 1.962, 1.961, 1.96, 1.952, 1.951, 1.95, 1.949, 1.949, 1.949, 1.949, 1.949, 1.949, 1.949, 1.949, 1.945, 1.945, 1.945, 1.945, 1.945, 1.949, 1.949, 1.95, 1.95, 1.951, 1.951, 1.952, 1.952, 1.952, 1.952, 1.952, 1.952, 1.951, 1.95, 1.949, 1.949, 1.949, 1.949, 1.945, 1.945, 1.945, 1.945, 1.945, 1.945, 1.944, 1.943, 1.942, 1.938, 1.938, 1.938, 1.938, 1.938, 1.938, 1.938, 1.938, 1.938, 1.938, 1.938, 1.938, 1.938, 1.942, 1.942, 1.942, 1.942, 1.942, 1.942, 1.942, 1.942, 1.938, 1.938, 1.938, 1.938, 1.938, 1.937, 1.936, 1.935, 1.93, 1.929, 1.923, 1.922, 1.916, 1.914, 1.913, 1.912, 1.912, 1.912, 1.912, 1.913, 1.915, 1.916, 1.921, 1.921, 1.921, 1.921, 1.921, 1.921, 1.917, 1.917, 1.917, 1.917, 1.917, 1.921, 1.922, 1.922, 1.923, 1.923, 1.923, 1.923, 1.924, 1.924, 1.924, 1.928, 1.928, 1.929, 1.93, 1.931, 1.931, 1.931, 1.935, 1.935, 1.935, 1.935, 1.935, 1.936, 1.937, 1.937, 1.937, 1.937, 1.936, 1.935, 1.935, 1.93, 1.929, 1.924, 1.916, 1.914, 1.912, 1.906, 1.905, 1.9, 1.9, 1.9, 1.904, 1.905, 1.906, 1.907, 1.912, 1.913, 1.914, 1.915, 1.915, 1.916, 1.915, 1.915, 1.914, 1.914, 1.913, 1.913, 1.912, 1.912, 1.912, 1.912, 1.906, 1.906, 1.905, 1.899, 1.898, 1.897, 1.895, 1.888, 1.884, 1.88, 1.876, 1.875, 1.874, 1.873
1.974, 1.974, 1.974, 1.974, 1.974, 1.978, 1.979, 1.98, 1.985, 1.985, 1.989, 1.99, 1.991, 1.991, 1.992, 1.992, 1.996, 1.996, 1.996, 1.996, 1.992, 1.991, 1.991, 1.99, 1.989, 1.989, 1.985, 1.985, 1.981, 1.981, 1.98, 1.979, 1.974, 1.974, 1.974, 1.974, 1.974, 1.978, 1.978, 1.979, 1.98, 1.98, 1.985, 1.985, 1.985, 1.985, 1.985, 1.981, 1.981, 1.981, 1.985, 1.985, 1.989, 1.989, 1.989, 1.99, 1.99, 1.99, 1.99, 1.99, 1.99, 1.99, 1.99, 1.99, 1.991, 1.992, 1.992, 1.992, 1.991, 1.99, 1.989, 1.985, 1.985, 1.98, 1.979, 1.974, 1.969, 1.968, 1.962, 1.961, 1.956, 1.952, 1.952, 1.952, 1.952, 1.956, 1.961, 1.962, 1.968, 1.969, 1.974, 1.978, 1.979, 1.979, 1.98, 1.981, 1.981, 1.981, 1.981, 1.985, 1.985, 1.981, 1.98, 1.974, 1.969, 1.968, 1.962, 1.961, 1.96, 1.956, 1.956, 1.956, 1.956, 1.96, 1.96, 1.96, 1.961, 1.962, 1.967, 1.968, 1.969, 1.97, 1.97, 1.969, 1.968, 1.967, 1.967, 1.962, 1.961, 1.96, 1.96, 1.96, 1.96, 1.96, 1.96, 1.96, 1.96, 1.96, 1.96, 1.96, 1.96, 1.96, 1.961, 1.962, 1.967, 1.967, 1.967, 1.967, 1.967, 1.967, 1.962, 1.962, 1.961, 1.96, 1.96, 1.96, 1.96, 1.96, 1.96, 1.96, 1.96, 1.961, 1.962, 1.963, 1.963, 1.967, 1.967, 1.967, 1.967, 1.968, 1.968, 1.968, 1.967, 1.967, 1.967, 1.967, 1.967, 1.967, 1.967, 1.967, 1.967, 1.967, 1.967, 1.967, 1.967, 1.967, 1.962, 1.962, 1.961, 1.96, 1.96, 1.956, 1.956, 1.956, 1.96, 1.96, 1.96, 1.96, 1.96, 1.96, 1.96, 1.96, 1.96, 1.96, 1.956, 1.952, 1.952, 1.952, 1.951, 1.95, 1.949, 1.949, 1.949, 1.945, 1.945, 1.945, 1.949, 1.949, 1.95, 1.951, 1.952, 1.952, 1.952, 1.956, 1.956, 1.96, 1.956, 1.956, 1.956, 1.956, 1.952, 1.952, 1.952, 1.952, 1.952, 1.952, 1.952, 1.952, 1.956, 1.956, 1.96, 1.96, 1.96, 1.96, 1.96, 1.96, 1.96, 1.96, 1.96, 1.96, 1.96, 1.96, 1.96, 1.96, 1.96, 1.96, 1.96, 1.96, 1.956, 1.956, 1.956, 1.956, 1.956, 1.96, 1.961, 1.962, 1.962, 1.967, 1.963, 1.962, 1.961, 1.956, 1.951, 1.95, 1.95, 1.945, 1.945, 1.945, 1.949, 1.949, 1.949, 1.949, 1.949, 1.949, 1.945, 1.945, 1.945, 1.945, 1.949, 1.95, 1.951, 1.951, 1.951, 1.956, 1.956, 1.956, 1.956, 1.952, 1.952, 1.952, 1.951, 1.95, 1.949, 1.949, 1.949, 1.945, 1.945, 1.945, 1.945, 1.945, 1.945, 1.944, 1.943, 1.942, 1.942, 1.938, 1.938, 1.938, 1.938, 1.938, 1.938, 1.938, 1.938, 1.938, 1.938, 1.938, 1.938, 1.942, 1.942, 1.942, 1.942, 1.942, 1.942, 1.942, 1.942, 1.942, 1.938, 1.938, 1.938, 1.938, 1.938, 1.937, 1.936, 1.935, 1.93, 1.929, 1.923, 1.922, 1.916, 1.914, 1.913, 1.907, 1.907, 1.907, 1.912, 1.912, 1.914, 1.916, 1.917, 1.917, 1.921, 1.921, 1.921, 1.921, 1.921, 1.922, 1.922, 1.922, 1.922, 1.922, 1.923, 1.923, 1.924, 1.924, 1.924, 1.924, 1.924, 1.924, 1.924, 1.928, 1.928, 1.929, 1.93, 1.93, 1.931, 1.931, 1.931, 1.931, 1.931, 1.935, 1.935, 1.935, 1.936, 1.936, 1.936, 1.936, 1.935, 1.935, 1.931, 1.93, 1.929, 1.923, 1.922, 1.913, 1.912, 1.906, 1.905, 1.9, 1.9, 1.9, 1.904, 1.905, 1.906, 1.907, 1.912, 1.913, 1.914, 1.916, 1.916, 1.916, 1.916, 1.916, 1.916, 1.916, 1.915, 1.914, 1.914, 1.914, 1.914, 1.913, 1.912, 1.912, 1.906, 1.905, 1.899, 1.897, 1.895, 1.889, 1.884, 1.88, 1.875, 1.874, 1.874, 1.867
1.97, 1.97, 1.974, 1.974, 1.974, 1.978, 1.979, 1.98, 1.985, 1.985, 1.99, 1.991, 1.991, 1.992, 1.992, 1.992, 1.996, 1.996, 1.992, 1.992, 1.991, 1.99, 1.99, 1.99, 1.985, 1.985, 1.985, 1.981, 1.981, 1.981, 1.98, 1.979, 1.978, 1.974, 1.974, 1.974, 1.974, 1.974, 1.978, 1.978, 1.979, 1.98, 1.985, 1.985, 1.985, 1.985, 1.985, 1.985, 1.985, 1.985, 1.985, 1.985, 1.989, 1.989, 1.989, 1.989, 1.989, 1.989, 1.989, 1.989, 1.989, 1.989, 1.989, 1.989, 1.99, 1.991, 1.991, 1.991, 1.991, 1.99, 1.989, 1.985, 1.985, 1.98, 1.979, 1.974, 1.969, 1.968, 1.962, 1.961, 1.956, 1.952, 1.952, 1.952, 1.952, 1.956, 1.961, 1.962, 1.968, 1.969, 1.974, 1.974, 1.978, 1.978, 1.979, 1.98, 1.981, 1.981, 1.981, 1.981, 1.981, 1.98, 1.979, 1.974, 1.969, 1.968, 1.962, 1.961, 1.96, 1.956, 1.956, 1.956, 1.956, 1.956, 1.956, 1.96, 1.961, 1.962, 1.967, 1.967, 1.968, 1.969, 1.97, 1.969, 1.968, 1.967, 1.967, 1.962, 1.961, 1.96, 1.96, 1.96, 1.96, 1.96, 1.96, 1.96, 1.956, 1.956, 1.956, 1.956, 1.96, 1.96, 1.961, 1.962, 1.967, 1.967, 1.967, 1.968, 1.968, 1.967, 1.967, 1.962, 1.962, 1.961, 1.96, 1.96, 1.96, 1.96, 1.96, 1.96, 1.961, 1.961, 1.962, 1.963, 1.963, 1.967, 1.967, 1.967, 1.967, 1.968, 1.969, 1.969, 1.968, 1.967, 1.967, 1.967, 1.967, 1.967, 1.967, 1.967, 1.967, 1.968, 1.968, 1.968, 1.968, 1.968, 1.967, 1.967, 1.962, 1.961, 1.96, 1.96, 1.956, 1.956, 1.96, 1.96, 1.96, 1.96, 1.96, 1.96, 1.96, 1.96, 1.96, 1.956, 1.952, 1.952, 1.952, 1.951, 1.95, 1.949, 1.949, 1.945, 1.945, 1.949, 1.949, 1.949, 1.949, 1.95, 1.951, 1.952, 1.952, 1.952, 1.956, 1.956, 1.96, 1.956, 1.956, 1.956, 1.956, 1.956, 1.952, 1.952, 1.952, 1.952, 1.952, 1.952, 1.952, 1.952, 1.952, 1.956, 1.956, 1.96, 1.96, 1.96, 1.96, 1.96, 1.96, 1.96, 1.96, 1.96, 1.96, 1.96, 1.96, 1.96, 1.961, 1.961, 1.961, 1.961, 1.96, 1.96, 1.961, 1.961, 1.961, 1.961, 1.962, 1.967, 1.967, 1.967, 1.967, 1.962, 1.961, 1.956, 1.951, 1.95, 1.945, 1.945, 1.945, 1.945, 1.949, 1.949, 1.949, 1.949, 1.949, 1.945, 1.945, 1.945, 1.945, 1.945, 1.949, 1.95, 1.951, 1.952, 1.956, 1.956, 1.96, 1.956, 1.956, 1.952, 1.952, 1.952, 1.951, 1.95, 1.949, 1.949, 1.949, 1.945, 1.945, 1.945, 1.945, 1.945, 1.945, 1.944, 1.943, 1.942, 1.938, 1.938, 1.938, 1.938, 1.938, 1.938, 1.938, 1.938, 1.938, 1.938, 1.938, 1.942, 1.942, 1.942, 1.942, 1.942, 1.942, 1.942, 1.942, 1.942, 1.942, 1.942, 1.942, 1.942, 1.938, 1.938, 1.938, 1.937, 1.936, 1.935, 1.93, 1.929, 1.922, 1.921, 1.915, 1.914, 1.912, 1.907, 1.907, 1.907, 1.907, 1.912, 1.913, 1.915, 1.916, 1.917, 1.921, 1.921, 1.921, 1.921, 1.922, 1.923, 1.923, 1.923, 1.923, 1.923, 1.928, 1.928, 1.928, 1.928, 1.928, 1.928, 1.924, 1.924, 1.928, 1.928, 1.928, 1.928, 1.929, 1.929, 1.93, 1.93, 1.93, 1.93, 1.931, 1.935, 1.935, 1.935, 1.935, 1.935, 1.935, 1.935, 1.935, 1.931, 1.931, 1.93, 1.929, 1.923, 1.922, 1.913, 1.912, 1.906, 1.905, 1.904, 1.9, 1.9, 1.904, 1.905, 1.906, 1.907, 1.912, 1.913, 1.915, 1.916, 1.917, 1.917, 1.917, 1.917, 1.917, 1.921, 1.921, 1.916, 1.916, 1.916, 1.915, 1.915, 1.913, 1.912, 1.912, 1.906, 1.905, 1.896, 1.895, 1.89, 1.884, 1.88, 1.874, 1.874, 1.873, 1.867
1.97, 1.97, 1.97, 1.974, 1.974, 1.978, 1.979, 1.98, 1.985, 1.989, 1.99, 1.991, 1.992, 1.992, 1.992, 1.996, 1.996, 1.996, 1.991, 1.991, 1.99, 1.99, 1.985, 1.985, 1.981, 1.981, 1.981, 1.981, 1.981, 1.981, 1.98, 1.979, 1.978, 1.974, 1.974, 1.974, 1.974, 1.974, 1.974, 1.978, 1.979, 1.98, 1.98, 1.985, 1.985, 1.985, 1.985, 1.985, 1.985, 1.985, 1.985, 1.985, 1.989, 1.989, 1.989, 1.989, 1.989, 1.989, 1.989, 1.989, 1.989, 1.989, 1.989, 1.989, 1.989, 1.99, 1.99, 1.99, 1.99, 1.989, 1.989, 1.985, 1.985, 1.98, 1.979, 1.974, 1.969, 1.968, 1.961, 1.96, 1.952, 1.952, 1.952, 1.952, 1.952, 1.956, 1.961, 1.962, 1.968, 1.969, 1.974, 1.974, 1.974, 1.978, 1.978, 1.979, 1.98, 1.981, 1.981, 1.981, 1.981, 1.98, 1.979, 1.974, 1.969, 1.968, 1.962, 1.961, 1.96, 1.956, 1.956, 1.956, 1.956, 1.956, 1.956, 1.96, 1.96, 1.961, 1.962, 1.967, 1.968, 1.969, 1.97, 1.97, 1.969, 1.968, 1.967, 1.963, 1.962, 1.961, 1.96, 1.96, 1.96, 1.96, 1.96, 1.956, 1.956, 1.956, 1.956, 1.956, 1.956, 1.96, 1.96, 1.961, 1.962, 1.967, 1.968, 1.969, 1.969, 1.968, 1.967, 1.967, 1.962, 1.962, 1.961, 1.961, 1.961, 1.961, 1.961, 1.961, 1.961, 1.962, 1.963, 1.963, 1.967, 1.967, 1.967, 1.967, 1.968, 1.969, 1.969, 1.969, 1.969, 1.968, 1.968, 1.967, 1.967, 1.967, 1.967, 1.967, 1.968, 1.969, 1.969, 1.969, 1.969, 1.969, 1.968, 1.967, 1.967, 1.961, 1.96, 1.96, 1.96, 1.96, 1.96, 1.96, 1.96, 1.96, 1.96, 1.96, 1.96, 1.96, 1.96, 1.956, 1.952, 1.952, 1.951, 1.95, 1.95, 1.949, 1.945, 1.945, 1.945, 1.945, 1.949, 1.949, 1.949, 1.95, 1.951, 1.952, 1.952, 1.952, 1.956, 1.956, 1.96, 1.956, 1.956, 1.956, 1.956, 1.952, 1.952, 1.952, 1.952, 1.951, 1.951, 1.951, 1.951, 1.951, 1.951, 1.952, 1.952, 1.956, 1.956, 1.956, 1.96, 1.96, 1.96, 1.96, 1.96, 1.96, 1.96, 1.96, 1.96, 1.961, 1.962, 1.962, 1.962, 1.962, 1.961, 1.961, 1.962, 1.962, 1.962, 1.962, 1.967, 1.967, 1.967, 1.967, 1.962, 1.961, 1.96, 1.952, 1.951, 1.95, 1.945, 1.945, 1.945, 1.945, 1.949, 1.949, 1.949, 1.949, 1.949, 1.945, 1.945, 1.945, 1.945, 1.945, 1.95, 1.951, 1.952, 1.952, 1.956, 1.96, 1.96, 1.96, 1.956, 1.956, 1.952, 1.952, 1.951, 1.95, 1.949, 1.945, 1.945, 1.945, 1.945, 1.945, 1.945, 1.945, 1.945, 1.944, 1.943, 1.942, 1.938, 1.938, 1.938, 1.938, 1.938, 1.938, 1.938, 1.938, 1.938, 1.938, 1.938, 1.942, 1.942, 1.942, 1.942, 1.942, 1.942, 1.942, 1.942, 1.942, 1.942, 1.942, 1.942, 1.942, 1.938, 1.938, 1.938, 1.937, 1.936, 1.935, 1.93, 1.923, 1.922, 1.916, 1.914, 1.913, 1.912, 1.907, 1.907, 1.907, 1.907, 1.912, 1.912, 1.914, 1.916, 1.917, 1.917, 1.921, 1.921, 1.922, 1.923, 1.923, 1.924, 1.928, 1.928, 1.928, 1.929, 1.929, 1.929, 1.929, 1.929, 1.928, 1.928, 1.928, 1.928, 1.928, 1.924, 1.924, 1.928, 1.928, 1.929, 1.929, 1.929, 1.929, 1.93, 1.931, 1.935, 1.935, 1.935, 1.935, 1.935, 1.935, 1.931, 1.931, 1.93, 1.929, 1.924, 1.923, 1.922, 1.913, 1.912, 1.906, 1.905, 1.904, 1.904, 1.904, 1.904, 1.905, 1.906, 1.907, 1.912, 1.913, 1.915, 1.916, 1.917, 1.917, 1.921, 1.922, 1.922, 1.922, 1.922, 1.921, 1.921, 1.917, 1.916, 1.916, 1.915, 1.913, 1.912, 1.906, 1.905, 1.897, 1.896, 1.89, 1.885, 1.88, 1.874, 1.874, 1.872, 1.867
1.97, 1.97, 1.97, 1.974, 1.974, 1.978, 1.979, 1.98, 1.985, 1.989, 1.99, 1.991, 1.992, 1.996, 1.996, 1.996, 1.996, 1.991, 1.99, 1.99, 1.989, 1.985, 1.981, 1.98, 1.98, 1.98, 1.98, 1.98, 1.98, 1.98, 1.98, 1.979, 1.978, 1.974, 1.974, 1.974, 1.974, 1.974, 1.974, 1.974, 1.978, 1.979, 1.98, 1.985, 1.985, 1.985, 1.985, 1.985, 1.985, 1.985, 1.985, 1.985, 1.989, 1.989, 1.989, 1.989, 1.989, 1.985, 1.985, 1.985, 1.985, 1.985, 1.985, 1.989, 1.989, 1.989, 1.989, 1.989, 1.989, 1.989, 1.989, 1.985, 1.985, 1.98, 1.979, 1.974, 1.969, 1.968, 1.961, 1.96, 1.952, 1.952, 1.952, 1.952, 1.952, 1.956, 1.961, 1.962, 1.968, 1.969, 1.974, 1.974, 1.974, 1.978, 1.978, 1.979, 1.979, 1.98, 1.981, 1.981, 1.98, 1.979, 1.974, 1.974, 1.968, 1.967, 1.962, 1.961, 1.956, 1.956, 1.956, 1.956, 1.956, 1.956, 1.956, 1.956, 1.96, 1.961, 1.962, 1.967, 1.968, 1.969, 1.97, 1.97, 1.969, 1.968, 1.967, 1.967, 1.962, 1.961, 1.96, 1.96, 1.96, 1.96, 1.956, 1.956, 1.956, 1.952, 1.952, 1.952, 1.956, 1.956, 1.96, 1.961, 1.962, 1.967, 1.968, 1.969, 1.969, 1.969, 1.968, 1.967, 1.967, 1.963, 1.962, 1.962, 1.962, 1.962, 1.962, 1.962, 1.962, 1.963, 1.963, 1.963, 1.967, 1.967, 1.967, 1.967, 1.968, 1.969, 1.97, 1.97, 1.97, 1.969, 1.969, 1.968, 1.968, 1.968, 1.968, 1.968, 1.969, 1.969, 1.97, 1.974, 1.974, 1.974, 1.969, 1.968, 1.967, 1.962, 1.961, 1.96, 1.96, 1.96, 1.96, 1.96, 1.96, 1.96, 1.96, 1.96, 1.96, 1.96, 1.956, 1.952, 1.952, 1.951, 1.95, 1.95, 1.945, 1.945, 1.945, 1.945, 1.945, 1.945, 1.949, 1.949, 1.949, 1.95, 1.951, 1.952, 1.952, 1.956, 1.956, 1.956, 1.96, 1.956, 1.956, 1.956, 1.956, 1.952, 1.952, 1.952, 1.951, 1.95, 1.95, 1.95, 1.95, 1.95, 1.95, 1.951, 1.951, 1.952, 1.952, 1.952, 1.956, 1.956, 1.956, 1.96, 1.96, 1.96, 1.96, 1.96, 1.961, 1.962, 1.962, 1.963, 1.963, 1.963, 1.962, 1.962, 1.963, 1.963, 1.967, 1.967, 1.967, 1.967, 1.967, 1.967, 1.962, 1.961, 1.956, 1.952, 1.951, 1.95, 1.945, 1.945, 1.945, 1.945, 1.949, 1.949, 1.949, 1.949, 1.949, 1.945, 1.945, 1.945, 1.945, 1.945, 1.95, 1.951, 1.952, 1.956, 1.956, 1.96, 1.96, 1.96, 1.96, 1.956, 1.952, 1.952, 1.951, 1.95, 1.949, 1.945, 1.945, 1.945, 1.945, 1.945, 1.945, 1.945, 1.945, 1.944, 1.943, 1.942, 1.938, 1.938, 1.938, 1.938, 1.938, 1.938, 1.938, 1.938, 1.938, 1.938, 1.942, 1.942, 1.942, 1.942, 1.942, 1.942, 1.942, 1.942, 1.942, 1.942, 1.942, 1.942, 1.942, 1.942, 1.938, 1.938, 1.938, 1.937, 1.936, 1.93, 1.929, 1.923, 1.922, 1.916, 1.914, 1.912, 1.911, 1.906, 1.906, 1.906, 1.906, 1.911, 1.912, 1.914, 1.916, 1.917, 1.917, 1.921, 1.922, 1.923, 1.924, 1.924, 1.929, 1.929, 1.929, 1.929, 1.93, 1.93, 1.93, 1.93, 1.93, 1.929, 1.928, 1.928, 1.928, 1.928, 1.924, 1.924, 1.924, 1.924, 1.928, 1.928, 1.928, 1.929, 1.929, 1.93, 1.931, 1.935, 1.935, 1.931, 1.931, 1.931, 1.931, 1.93, 1.929, 1.929, 1.924, 1.923, 1.922, 1.913, 1.912, 1.911, 1.905, 1.904, 1.904, 1.904, 1.904, 1.905, 1.906, 1.907, 1.912, 1.914, 1.915, 1.916, 1.921, 1.922, 1.922, 1.923, 1.923, 1.923, 1.923, 1.922, 1.922, 1.921, 1.921, 1.916, 1.916, 1.914, 1.913, 1.906, 1.905, 1.898, 1.897, 1.89, 1.886, 1.88, 1.876, 1.874, 1.873, 1.867
1.97, 1.97, 1.97, 1.974, 1.974, 1.978, 1.979, 1.98, 1.985, 1.989, 1.99, 1.991, 1.992, 1.996, 1.996, 1.992, 1.992, 1.991, 1.99, 1.989, 1.985, 1.98, 1.98, 1.979, 1.979, 1.979, 1.979, 1.979, 1.979, 1.979, 1.979, 1.978, 1.978, 1.974, 1.974, 1.974, 1.974, 1.974, 1.974, 1.974, 1.978, 1.979, 1.98, 1.981, 1.985, 1.985, 1.985, 1.985, 1.985, 1.985, 1.985, 1.985, 1.989, 1.989, 1.989, 1.989, 1.985, 1.985, 1.985, 1.985, 1.985, 1.985, 1.985, 1.985, 1.989, 1.989, 1.989, 1.989, 1.989, 1.989, 1.985, 1.985, 1.985, 1.98, 1.979, 1.974, 1.974, 1.967, 1.962, 1.961, 1.956, 1.952, 1.952, 1.952, 1.952, 1.956, 1.961, 1.962, 1.968, 1.969, 1.974, 1.974, 1.974, 1.978, 1.978, 1.978, 1.979, 1.98, 1.981, 1.98, 1.979, 1.979, 1.974, 1.969, 1.968, 1.962, 1.961, 1.96, 1.956, 1.956, 1.956, 1.952, 1.952, 1.956, 1.956, 1.956, 1.96, 1.961, 1.962, 1.967, 1.968, 1.969, 1.97, 1.974, 1.97, 1.969, 1.968, 1.967, 1.967, 1.962, 1.961, 1.96, 1.96, 1.96, 1.956, 1.956, 1.956, 1.952, 1.952, 1.952, 1.956, 1.956, 1.96, 1.961, 1.962, 1.967, 1.968, 1.969, 1.97, 1.969, 1.969, 1.968, 1.967, 1.967, 1.963, 1.963, 1.963, 1.963, 1.963, 1.963, 1.963, 1.963, 1.963, 1.963, 1.963, 1.967, 1.967, 1.967, 1.968, 1.969, 1.974, 1.974, 1.974, 1.97, 1.97, 1.969, 1.969, 1.969, 1.969, 1.969, 1.97, 1.974, 1.974, 1.974, 1.974, 1.974, 1.974, 1.969, 1.968, 1.962, 1.961, 1.96, 1.96, 1.96, 1.96, 1.96, 1.96, 1.96, 1.96, 1.96, 1.96, 1.96, 1.956, 1.952, 1.952, 1.951, 1.95, 1.949, 1.945, 1.945, 1.945, 1.945, 1.945, 1.945, 1.949, 1.949, 1.949, 1.95, 1.951, 1.952, 1.956, 1.956, 1.956, 1.96, 1.96, 1.956, 1.956, 1.956, 1.956, 1.952, 1.952, 1.951, 1.95, 1.95, 1.949, 1.949, 1.949, 1.949, 1.949, 1.95, 1.95, 1.951, 1.951, 1.952, 1.952, 1.952, 1.956, 1.956, 1.96, 1.96, 1.96, 1.961, 1.962, 1.962, 1.963, 1.967, 1.967, 1.967, 1.967, 1.967, 1.967, 1.967, 1.967, 1.967, 1.967, 1.967, 1.967, 1.967, 1.962, 1.961, 1.956, 1.952, 1.951, 1.95, 1.945, 1.945, 1.945, 1.945, 1.949, 1.949, 1.949, 1.949, 1.949, 1.945, 1.945, 1.945, 1.945, 1.945, 1.95, 1.951, 1.952, 1.956, 1.96, 1.96, 1.96, 1.96, 1.96, 1.956, 1.952, 1.951, 1.95, 1.949, 1.945, 1.945, 1.945, 1.945, 1.945, 1.945, 1.945, 1.945, 1.945, 1.944, 1.943, 1.942, 1.938, 1.938, 1.937, 1.937, 1.937, 1.937, 1.938, 1.938, 1.938, 1.942, 1.942, 1.942, 1.942, 1.942, 1.942, 1.942, 1.942, 1.942, 1.942, 1.942, 1.942, 1.942, 1.942, 1.942, 1.938, 1.938, 1.937, 1.936, 1.935, 1.93, 1.929, 1.923, 1.922, 1.915, 1.914, 1.912, 1.906, 1.905, 1.905, 1.905, 1.905, 1.906, 1.912, 1.914, 1.916, 1.917, 1.917, 1.922, 1.923, 1.924, 1.924, 1.929, 1.93, 1.93, 1.93, 1.93, 1.931, 1.931, 1.931, 1.931, 1.93, 1.93, 1.929, 1.928, 1.928, 1.924, 1.924, 1.924, 1.924, 1.924, 1.924, 1.924, 1.928, 1.928, 1.929, 1.93, 1.931, 1.931, 1.931, 1.931, 1.931, 1.931, 1.93, 1.929, 1.928, 1.928, 1.923, 1.922, 1.916, 1.914, 1.912, 1.911, 1.906, 1.905, 1.904, 1.904, 1.905, 1.906, 1.907, 1.911, 1.912, 1.914, 1.916, 1.916, 1.922, 1.923, 1.923, 1.923, 1.928, 1.924, 1.924, 1.923, 1.923, 1.922, 1.922, 1.921, 1.916, 1.916, 1.914, 1.913, 1.906, 1.905, 1.897, 1.895, 1.888, 1.879, 1.877, 1.875, 1.874, 1.867
1.97, 1.97, 1.974, 1.974, 1.978, 1.978, 1.979, 1.98, 1.985, 1.989, 1.99, 1.991, 1.992, 1.996, 1.992, 1.992, 1.991, 1.99, 1.989, 1.985, 1.98, 1.979, 1.979, 1.974, 1.974, 1.974, 1.974, 1.974, 1.978, 1.978, 1.978, 1.978, 1.978, 1.978, 1.978, 1.974, 1.974, 1.974, 1.974, 1.974, 1.978, 1.978, 1.979, 1.98, 1.981, 1.981, 1.985, 1.985, 1.985, 1.985, 1.985, 1.989, 1.989, 1.989, 1.989, 1.985, 1.985, 1.985, 1.981, 1.981, 1.981, 1.985, 1.985, 1.985, 1.985, 1.989, 1.989, 1.985, 1.985, 1.985, 1.985, 1.985, 1.985, 1.98, 1.979, 1.974, 1.974, 1.967, 1.962, 1.961, 1.956, 1.952, 1.952, 1.952, 1.952, 1.956, 1.961, 1.962, 1.968, 1.969, 1.974, 1.974, 1.978, 1.978, 1.978, 1.979, 1.98, 1.981, 1.981, 1.98, 1.979, 1.974, 1.974, 1.968, 1.967, 1.962, 1.961, 1.96, 1.956, 1.956, 1.956, 1.952, 1.952, 1.956, 1.956, 1.956, 1.96, 1.961, 1.962, 1.967, 1.968, 1.969, 1.97, 1.974, 1.974, 1.969, 1.969, 1.968, 1.967, 1.962, 1.962, 1.961, 1.96, 1.96, 1.956, 1.956, 1.952, 1.952, 1.952, 1.952, 1.956, 1.956, 1.96, 1.961, 1.962, 1.967, 1.968, 1.969, 1.974, 1.974, 1.969, 1.969, 1.968, 1.967, 1.967, 1.967, 1.963, 1.963, 1.963, 1.963, 1.963, 1.963, 1.963, 1.963, 1.963, 1.963, 1.967, 1.967, 1.967, 1.968, 1.969, 1.974, 1.97, 1.97, 1.97, 1.97, 1.97, 1.97, 1.97, 1.97, 1.97, 1.974, 1.974, 1.974, 1.974, 1.974, 1.974, 1.969, 1.968, 1.967, 1.962, 1.961, 1.96, 1.96, 1.96, 1.96, 1.96, 1.96, 1.96, 1.96, 1.96, 1.96, 1.956, 1.952, 1.952, 1.951, 1.95, 1.949, 1.945, 1.945, 1.945, 1.945, 1.945, 1.945, 1.949, 1.949, 1.95, 1.951, 1.952, 1.952, 1.956, 1.956, 1.956, 1.96, 1.96, 1.96, 1.956, 1.956, 1.952, 1.952, 1.951, 1.95, 1.95, 1.945, 1.945, 1.945, 1.945, 1.945, 1.945, 1.945, 1.949, 1.95, 1.95, 1.951, 1.952, 1.952, 1.952, 1.956, 1.956, 1.96, 1.96, 1.961, 1.962, 1.963, 1.967, 1.967, 1.967, 1.967, 1.967, 1.967, 1.967, 1.967, 1.967, 1.967, 1.967, 1.967, 1.967, 1.967, 1.962, 1.961, 1.956, 1.952, 1.951, 1.95, 1.945, 1.945, 1.945, 1.945, 1.949, 1.949, 1.949, 1.949, 1.949, 1.945, 1.945, 1.945, 1.945, 1.945, 1.95, 1.951, 1.952, 1.956, 1.96, 1.96, 1.96, 1.96, 1.96, 1.956, 1.952, 1.951, 1.95, 1.945, 1.945, 1.945, 1.945, 1.945, 1.945, 1.945, 1.945, 1.945, 1.944, 1.943, 1.942, 1.938, 1.938, 1.937, 1.936, 1.936, 1.936, 1.936, 1.937, 1.938, 1.938, 1.942, 1.942, 1.942, 1.942, 1.942, 1.942, 1.942, 1.942, 1.942, 1.942, 1.942, 1.942, 1.942, 1.942, 1.938, 1.938, 1.937, 1.936, 1.936, 1.931, 1.93, 1.929, 1.923, 1.916, 1.915, 1.914, 1.907, 1.906, 1.905, 1.904, 1.904, 1.905, 1.906, 1.912, 1.913, 1.915, 1.917, 1.917, 1.922, 1.923, 1.924, 1.929, 1.929, 1.93, 1.935, 1.935, 1.935, 1.936, 1.935, 1.935, 1.935, 1.931, 1.931, 1.93, 1.929, 1.929, 1.924, 1.924, 1.924, 1.924, 1.924, 1.924, 1.924, 1.928, 1.928, 1.928, 1.929, 1.93, 1.931, 1.931, 1.931, 1.931, 1.931, 1.93, 1.929, 1.928, 1.928, 1.923, 1.922, 1.916, 1.914, 1.912, 1.911, 1.906, 1.905, 1.905, 1.905, 1.905, 1.906, 1.907, 1.911, 1.912, 1.914, 1.916, 1.922, 1.922, 1.923, 1.924, 1.928, 1.929, 1.929, 1.928, 1.924, 1.924, 1.923, 1.923, 1.922, 1.922, 1.916, 1.916, 1.914, 1.906, 1.905, 1.899, 1.895, 1.889, 1.884, 1.877, 1.876, 1.875, 1.867
1.97, 1.97, 1.974, 1.978, 1.978, 1.979, 1.98, 1.981, 1.989, 1.989, 1.99, 1.991, 1.992, 1.992, 1.992, 1.991, 1.99, 1.99, 1.985, 1.981, 1.98, 1.974, 1.974, 1.974, 1.974, 1.974, 1.974, 1.974, 1.974, 1.978, 1.978, 1.978, 1.978, 1.978, 1.978, 1.978, 1.978, 1.978, 1.978, 1.978, 1.978, 1.978, 1.979, 1.98, 1.981, 1.981, 1.985, 1.985, 1.985, 1.985, 1.989, 1.989, 1.989, 1.989, 1.989, 1.985, 1.985, 1.981, 1.981, 1.981, 1.981, 1.981, 1.981, 1.985, 1.985, 1.985, 1.985, 1.985, 1.985, 1.985, 1.985, 1.985, 1.981, 1.98, 1.979, 1.974, 1.974, 1.967, 1.962, 1.961, 1.96, 1.956, 1.952, 1.952, 1.956, 1.96, 1.961, 1.967, 1.968, 1.974, 1.974, 1.974, 1.978, 1.978, 1.979, 1.979, 1.98, 1.981, 1.98, 1.979, 1.979, 1.974, 1.969, 1.968, 1.967, 1.962, 1.961, 1.96, 1.956, 1.956, 1.956, 1.956, 1.956, 1.956, 1.956, 1.96, 1.96, 1.961, 1.962, 1.967, 1.968, 1.969, 1.97, 1.974, 1.974, 1.974, 1.969, 1.969, 1.968, 1.967, 1.962, 1.961, 1.96, 1.96, 1.956, 1.956, 1.952, 1.952, 1.952, 1.952, 1.952, 1.956, 1.96, 1.961, 1.962, 1.967, 1.968, 1.969, 1.969, 1.974, 1.97, 1.969, 1.968, 1.967, 1.967, 1.967, 1.967, 1.967, 1.963, 1.963, 1.963, 1.963, 1.962, 1.962, 1.962, 1.962, 1.962, 1.962, 1.967, 1.968, 1.969, 1.969, 1.97, 1.97, 1.97, 1.97, 1.97, 1.97, 1.97, 1.97, 1.97, 1.974, 1.974, 1.974, 1.974, 1.974, 1.974, 1.969, 1.968, 1.967, 1.962, 1.961, 1.96, 1.96, 1.96, 1.96, 1.96, 1.96, 1.96, 1.96, 1.96, 1.956, 1.956, 1.952, 1.952, 1.951, 1.95, 1.949, 1.949, 1.949, 1.949, 1.949, 1.949, 1.949, 1.949, 1.95, 1.951, 1.952, 1.952, 1.956, 1.956, 1.96, 1.96, 1.96, 1.96, 1.96, 1.956, 1.956, 1.952, 1.952, 1.951, 1.95, 1.949, 1.945, 1.945, 1.945, 1.945, 1.945, 1.945, 1.945, 1.945, 1.949, 1.95, 1.95, 1.951, 1.952, 1.952, 1.956, 1.956, 1.96, 1.96, 1.961, 1.962, 1.963, 1.967, 1.967, 1.967, 1.967, 1.967, 1.967, 1.967, 1.967, 1.967, 1.967, 1.967, 1.967, 1.967, 1.962, 1.961, 1.96, 1.956, 1.952, 1.951, 1.95, 1.945, 1.945, 1.945, 1.949, 1.949, 1.949, 1.949, 1.949, 1.949, 1.945, 1.945, 1.945, 1.945, 1.945, 1.95, 1.951, 1.952, 1.956, 1.96, 1.96, 1.96, 1.96, 1.956, 1.952, 1.952, 1.951, 1.95, 1.945, 1.945, 1.944, 1.944, 1.944, 1.944, 1.945, 1.945, 1.945, 1.944, 1.943, 1.942, 1.938, 1.938, 1.937, 1.936, 1.935, 1.935, 1.935, 1.936, 1.937, 1.938, 1.938, 1.942, 1.942, 1.942, 1.942, 1.942, 1.942, 1.942, 1.942, 1.942, 1.942, 1.942, 1.942, 1.938, 1.938, 1.937, 1.936, 1.935, 1.935, 1.93, 1.929, 1.923, 1.922, 1.916, 1.914, 1.913, 1.906, 1.905, 1.904, 1.904, 1.904, 1.904, 1.905, 1.912, 1.913, 1.915, 1.916, 1.917, 1.922, 1.923, 1.929, 1.93, 1.93, 1.935, 1.936, 1.936, 1.936, 1.936, 1.936, 1.936, 1.936, 1.935, 1.931, 1.931, 1.93, 1.929, 1.924, 1.924, 1.923, 1.923, 1.923, 1.923, 1.923, 1.924, 1.924, 1.928, 1.929, 1.93, 1.93, 1.931, 1.931, 1.931, 1.93, 1.929, 1.928, 1.928, 1.923, 1.922, 1.922, 1.916, 1.914, 1.912, 1.911, 1.907, 1.906, 1.906, 1.906, 1.906, 1.907, 1.911, 1.912, 1.913, 1.915, 1.916, 1.922, 1.923, 1.924, 1.928, 1.929, 1.93, 1.93, 1.929, 1.929, 1.928, 1.924, 1.924, 1.923, 1.922, 1.922, 1.916, 1.915, 1.913, 1.906, 1.905, 1.897, 1.89, 1.884, 1.877, 1.876, 1.874, 1.872
1.97, 1.97, 1.974, 1.978, 1.979, 1.98, 1.98, 1.985, 1.989, 1.989, 1.99, 1.991, 1.991, 1.991, 1.991, 1.991, 1.99, 1.985, 1.981, 1.98, 1.98, 1.974, 1.974, 1.969, 1.969, 1.969, 1.974, 1.974, 1.974, 1.974, 1.978, 1.978, 1.978, 1.978, 1.978, 1.978, 1.978, 1.978, 1.978, 1.978, 1.978, 1.978, 1.979, 1.98, 1.98, 1.981, 1.985, 1.985, 1.985, 1.989, 1.989, 1.989, 1.989, 1.989, 1.985, 1.985, 1.981, 1.981, 1.981, 1.981, 1.981, 1.981, 1.981, 1.981, 1.981, 1.985, 1.985, 1.985, 1.985, 1.985, 1.985, 1.981, 1.98, 1.98, 1.979, 1.974, 1.974, 1.967, 1.967, 1.96, 1.96, 1.956, 1.956, 1.956, 1.956, 1.961, 1.961, 1.968, 1.969, 1.974, 1.974, 1.978, 1.979, 1.979, 1.98, 1.98, 1.981, 1.981, 1.98, 1.979, 1.974, 1.974, 1.969, 1.968, 1.963, 1.962, 1.961, 1.96, 1.956, 1.956, 1.956, 1.96, 1.96, 1.96, 1.96, 1.96, 1.961, 1.962, 1.967, 1.967, 1.968, 1.969, 1.974, 1.974, 1.974, 1.974, 1.974, 1.969, 1.968, 1.968, 1.963, 1.962, 1.961, 1.96, 1.956, 1.956, 1.952, 1.952, 1.952, 1.952, 1.952, 1.956, 1.956, 1.961, 1.962, 1.967, 1.967, 1.968, 1.969, 1.97, 1.97, 1.97, 1.969, 1.968, 1.967, 1.967, 1.967, 1.967, 1.967, 1.963, 1.963, 1.962, 1.961, 1.961, 1.961, 1.961, 1.961, 1.961, 1.962, 1.967, 1.968, 1.968, 1.969, 1.969, 1.969, 1.969, 1.969, 1.97, 1.97, 1.97, 1.97, 1.974, 1.974, 1.974, 1.974, 1.974, 1.974, 1.969, 1.968, 1.967, 1.962, 1.961, 1.96, 1.96, 1.96, 1.96, 1.96, 1.96, 1.96, 1.96, 1.96, 1.956, 1.956, 1.952, 1.952, 1.951, 1.95, 1.949, 1.949, 1.949, 1.949, 1.949, 1.949, 1.95, 1.95, 1.951, 1.952, 1.952, 1.956, 1.956, 1.96, 1.96, 1.96, 1.96, 1.96, 1.96, 1.956, 1.956, 1.952, 1.951, 1.95, 1.949, 1.949, 1.945, 1.945, 1.945, 1.945, 1.945, 1.945, 1.945, 1.945, 1.949, 1.949, 1.95, 1.951, 1.952, 1.952, 1.956, 1.956, 1.96, 1.96, 1.961, 1.962, 1.962, 1.967, 1.967, 1.967, 1.967, 1.967, 1.967, 1.968, 1.968, 1.967, 1.967, 1.967, 1.967, 1.967, 1.962, 1.961, 1.96, 1.956, 1.952, 1.951, 1.95, 1.949, 1.945, 1.945, 1.949, 1.949, 1.949, 1.949, 1.949, 1.949, 1.949, 1.945, 1.945, 1.945, 1.945, 1.95, 1.951, 1.952, 1.956, 1.96, 1.96, 1.96, 1.96, 1.956, 1.952, 1.951, 1.95, 1.949, 1.945, 1.944, 1.943, 1.943, 1.943, 1.943, 1.944, 1.945, 1.945, 1.944, 1.943, 1.942, 1.942, 1.937, 1.936, 1.935, 1.935, 1.935, 1.935, 1.935, 1.936, 1.937, 1.938, 1.942, 1.942, 1.942, 1.942, 1.942, 1.942, 1.942, 1.942, 1.942, 1.942, 1.942, 1.938, 1.938, 1.937, 1.936, 1.935, 1.935, 1.931, 1.93, 1.929, 1.923, 1.922, 1.916, 1.914, 1.912, 1.906, 1.905, 1.904, 1.9, 1.9, 1.9, 1.905, 1.906, 1.912, 1.914, 1.916, 1.917, 1.923, 1.928, 1.929, 1.93, 1.935, 1.936, 1.937, 1.937, 1.937, 1.937, 1.937, 1.937, 1.937, 1.936, 1.935, 1.931, 1.931, 1.93, 1.929, 1.923, 1.922, 1.922, 1.922, 1.922, 1.922, 1.923, 1.924, 1.924, 1.928, 1.929, 1.93, 1.93, 1.93, 1.93, 1.929, 1.928, 1.928, 1.923, 1.923, 1.922, 1.917, 1.916, 1.914, 1.912, 1.912, 1.907, 1.907, 1.907, 1.907, 1.907, 1.907, 1.911, 1.912, 1.914, 1.915, 1.922, 1.922, 1.923, 1.928, 1.929, 1.93, 1.93, 1.93, 1.93, 1.93, 1.929, 1.928, 1.924, 1.924, 1.923, 1.922, 1.922, 1.915, 1.915, 1.906, 1.905, 1.899, 1.895, 1.885, 1.878, 1.877, 1.875, 1.873
1.97, 1.974, 1.978, 1.979, 1.98, 1.981, 1.981, 1.985, 1.989, 1.989, 1.989, 1.99, 1.99, 1.99, 1.99, 1.99, 1.985, 1.981, 1.98, 1.979, 1.974, 1.969, 1.969, 1.968, 1.968, 1.968, 1.969, 1.969, 1.974, 1.974, 1.978, 1.978, 1.978, 1.978, 1.978, 1.978, 1.978, 1.978, 1.978, 1.978, 1.978, 1.978, 1.978, 1.979, 1.979, 1.98, 1.981, 1.985, 1.985, 1.989, 1.989, 1.989, 1.989, 1.989, 1.985, 1.981, 1.981, 1.981, 1.981, 1.981, 1.981, 1.981, 1.981, 1.981, 1.981, 1.981, 1.981, 1.98, 1.98, 1.98, 1.98, 1.98, 1.98, 1.979, 1.978, 1.974, 1.969, 1.968, 1.967, 1.961, 1.96, 1.96, 1.96, 1.96, 1.96, 1.961, 1.967, 1.968, 1.969, 1.974, 1.974, 1.979, 1.98, 1.98, 1.981, 1.981, 1.981, 1.981, 1.98, 1.979, 1.974, 1.969, 1.968, 1.967, 1.963, 1.962, 1.961, 1.96, 1.96, 1.96, 1.96, 1.96, 1.96, 1.961, 1.961, 1.961, 1.962, 1.962, 1.967, 1.967, 1.968, 1.969, 1.974, 1.974, 1.974, 1.974, 1.974, 1.974, 1.969, 1.968, 1.967, 1.962, 1.961, 1.96, 1.956, 1.956, 1.952, 1.952, 1.952, 1.952, 1.956, 1.956, 1.956, 1.961, 1.962, 1.962, 1.967, 1.968, 1.969, 1.97, 1.97, 1.97, 1.969, 1.968, 1.968, 1.968, 1.967, 1.967, 1.967, 1.963, 1.962, 1.961, 1.961, 1.96, 1.96, 1.96, 1.96, 1.96, 1.961, 1.962, 1.967, 1.967, 1.968, 1.968, 1.968, 1.968, 1.968, 1.969, 1.969, 1.969, 1.97, 1.974, 1.974, 1.974, 1.974, 1.974, 1.974, 1.969, 1.968, 1.967, 1.962, 1.961, 1.96, 1.96, 1.96, 1.96, 1.96, 1.96, 1.96, 1.96, 1.96, 1.956, 1.956, 1.952, 1.952, 1.951, 1.95, 1.95, 1.949, 1.949, 1.949, 1.949, 1.95, 1.951, 1.951, 1.952, 1.952, 1.956, 1.956, 1.96, 1.96, 1.96, 1.96, 1.96, 1.96, 1.96, 1.956, 1.956, 1.952, 1.951, 1.95, 1.949, 1.945, 1.945, 1.945, 1.945, 1.945, 1.945, 1.945, 1.945, 1.945, 1.945, 1.949, 1.95, 1.951, 1.952, 1.952, 1.952, 1.956, 1.956, 1.96, 1.96, 1.961, 1.962, 1.962, 1.967, 1.967, 1.967, 1.967, 1.967, 1.967, 1.967, 1.967, 1.967, 1.967, 1.962, 1.962, 1.961, 1.96, 1.956, 1.952, 1.951, 1.95, 1.949, 1.949, 1.945, 1.945, 1.949, 1.949, 1.949, 1.949, 1.949, 1.949, 1.949, 1.945, 1.945, 1.945, 1.949, 1.95, 1.951, 1.952, 1.956, 1.956, 1.96, 1.96, 1.956, 1.956, 1.952, 1.951, 1.95, 1.945, 1.944, 1.943, 1.943, 1.942, 1.942, 1.943, 1.944, 1.945, 1.945, 1.945, 1.944, 1.943, 1.942, 1.937, 1.936, 1.935, 1.935, 1.935, 1.935, 1.935, 1.936, 1.937, 1.938, 1.942, 1.942, 1.942, 1.942, 1.942, 1.942, 1.942, 1.942, 1.942, 1.942, 1.942, 1.938, 1.938, 1.937, 1.936, 1.935, 1.931, 1.93, 1.929, 1.924, 1.923, 1.922, 1.916, 1.912, 1.911, 1.905, 1.9, 1.9, 1.9, 1.9, 1.9, 1.905, 1.906, 1.912, 1.914, 1.916, 1.924, 1.924, 1.929, 1.93, 1.935, 1.936, 1.937, 1.937, 1.938, 1.938, 1.938, 1.938, 1.938, 1.937, 1.936, 1.935, 1.935, 1.931, 1.93, 1.929, 1.923, 1.922, 1.921, 1.921, 1.921, 1.921, 1.922, 1.923, 1.924, 1.924, 1.928, 1.929, 1.929, 1.929, 1.929, 1.928, 1.928, 1.923, 1.923, 1.922, 1.921, 1.917, 1.916, 1.914, 1.913, 1.912, 1.911, 1.907, 1.907, 1.907, 1.911, 1.911, 1.911, 1.912, 1.914, 1.916, 1.917, 1.922, 1.923, 1.928, 1.929, 1.93, 1.935, 1.935, 1.931, 1.93, 1.93, 1.929, 1.928, 1.924, 1.924, 1.923, 1.922, 1.921, 1.916, 1.912, 1.906, 1.899, 1.897, 1.887, 1.879, 1.879, 1.878, 1.873
1.974, 1.974, 1.979, 1.98, 1.98, 1.981, 1.985, 1.985, 1.989, 1.989, 1.989, 1.989, 1.989, 1.989, 1.989, 1.985, 1.985, 1.98, 1.98, 1.974, 1.974, 1.968, 1.968, 1.967, 1.967, 1.967, 1.968, 1.968, 1.969, 1.974, 1.974, 1.978, 1.979, 1.979, 1.979, 1.978, 1.978, 1.978, 1.978, 1.974, 1.974, 1.974, 1.974, 1.978, 1.979, 1.979, 1.98, 1.985, 1.985, 1.989, 1.989, 1.989, 1.989, 1.989, 1.985, 1.981, 1.981, 1.981, 1.98, 1.98, 1.98, 1.98, 1.98, 1.98, 1.98, 1.98, 1.98, 1.979, 1.979, 1.979, 1.979, 1.979, 1.979, 1.978, 1.974, 1.974, 1.969, 1.968, 1.967, 1.962, 1.961, 1.96, 1.96, 1.96, 1.961, 1.961, 1.968, 1.968, 1.974, 1.978, 1.979, 1.98, 1.981, 1.981, 1.981, 1.981, 1.981, 1.98, 1.979, 1.974, 1.974, 1.969, 1.968, 1.967, 1.962, 1.961, 1.96, 1.96, 1.96, 1.96, 1.96, 1.961, 1.961, 1.962, 1.962, 1.962, 1.962, 1.967, 1.967, 1.968, 1.968, 1.969, 1.974, 1.974, 1.978, 1.978, 1.974, 1.974, 1.974, 1.969, 1.968, 1.962, 1.961, 1.96, 1.956, 1.956, 1.952, 1.952, 1.952, 1.952, 1.956, 1.956, 1.956, 1.96, 1.961, 1.962, 1.967, 1.967, 1.968, 1.969, 1.97, 1.97, 1.97, 1.969, 1.969, 1.969, 1.968, 1.967, 1.967, 1.967, 1.962, 1.961, 1.96, 1.96, 1.956, 1.956, 1.96, 1.96, 1.96, 1.961, 1.962, 1.967, 1.967, 1.967, 1.967, 1.967, 1.967, 1.968, 1.968, 1.968, 1.969, 1.97, 1.974, 1.974, 1.974, 1.974, 1.969, 1.968, 1.967, 1.962, 1.961, 1.96, 1.96, 1.96, 1.96, 1.96, 1.96, 1.96, 1.96, 1.96, 1.96, 1.956, 1.956, 1.952, 1.952, 1.952, 1.951, 1.95, 1.95, 1.95, 1.95, 1.95, 1.951, 1.952, 1.952, 1.952, 1.956, 1.956, 1.96, 1.96, 1.96, 1.961, 1.961, 1.96, 1.96, 1.96, 1.956, 1.956, 1.952, 1.951, 1.95, 1.945, 1.945, 1.945, 1.945, 1.945, 1.945, 1.945, 1.945, 1.945, 1.945, 1.945, 1.945, 1.949, 1.95, 1.951, 1.952, 1.952, 1.956, 1.956, 1.96, 1.96, 1.96, 1.961, 1.962, 1.962, 1.967, 1.967, 1.967, 1.967, 1.967, 1.967, 1.967, 1.962, 1.962, 1.961, 1.961, 1.961, 1.956, 1.952, 1.952, 1.951, 1.95, 1.949, 1.949, 1.945, 1.945, 1.949, 1.949, 1.949, 1.949, 1.949, 1.949, 1.949, 1.949, 1.945, 1.945, 1.949, 1.95, 1.951, 1.952, 1.956, 1.956, 1.96, 1.96, 1.956, 1.952, 1.951, 1.95, 1.95, 1.945, 1.944, 1.943, 1.942, 1.942, 1.942, 1.943, 1.944, 1.945, 1.945, 1.945, 1.944, 1.943, 1.942, 1.937, 1.936, 1.935, 1.935, 1.935, 1.935, 1.935, 1.936, 1.937, 1.938, 1.942, 1.942, 1.942, 1.942, 1.942, 1.942, 1.942, 1.942, 1.942, 1.942, 1.942, 1.938, 1.937, 1.936, 1.935, 1.935, 1.931, 1.93, 1.929, 1.924, 1.923, 1.922, 1.915, 1.911, 1.911, 1.904, 1.9, 1.9, 1.9, 1.9, 1.9, 1.905, 1.906, 1.911, 1.915, 1.922, 1.923, 1.924, 1.929, 1.93, 1.936, 1.937, 1.937, 1.942, 1.942, 1.942, 1.942, 1.938, 1.938, 1.938, 1.937, 1.936, 1.935, 1.931, 1.93, 1.929, 1.923, 1.922, 1.921, 1.921, 1.921, 1.921, 1.921, 1.922, 1.923, 1.924, 1.928, 1.928, 1.928, 1.928, 1.928, 1.928, 1.923, 1.923, 1.922, 1.921, 1.921, 1.917, 1.916, 1.915, 1.914, 1.913, 1.912, 1.907, 1.907, 1.907, 1.911, 1.911, 1.912, 1.913, 1.914, 1.916, 1.917, 1.922, 1.923, 1.929, 1.93, 1.935, 1.935, 1.935, 1.935, 1.931, 1.93, 1.929, 1.928, 1.924, 1.924, 1.924, 1.923, 1.922, 1.916, 1.914, 1.906, 1.905, 1.898, 1.889, 1.885, 1.885, 1.879, 1.874
1.974, 1.978, 1.979, 1.98, 1.985, 1.985, 1.985, 1.989, 1.989, 1.989, 1.989, 1.989, 1.989, 1.989, 1.989, 1.985, 1.981, 1.98, 1.974, 1.974, 1.969, 1.968, 1.967, 1.963, 1.963, 1.967, 1.967, 1.968, 1.969, 1.974, 1.974, 1.979, 1.98, 1.98, 1.98, 1.979, 1.979, 1.978, 1.978, 1.974, 1.974, 1.974, 1.974, 1.974, 1.978, 1.979, 1.98, 1.981, 1.985, 1.989, 1.989, 1.989, 1.989, 1.989, 1.985, 1.981, 1.981, 1.98, 1.979, 1.979, 1.979, 1.979, 1.979, 1.979, 1.979, 1.979, 1.979, 1.978, 1.978, 1.978, 1.974, 1.974, 1.974, 1.974, 1.974, 1.969, 1.968, 1.967, 1.963, 1.962, 1.961, 1.96, 1.96, 1.961, 1.962, 1.967, 1.967, 1.974, 1.974, 1.979, 1.98, 1.981, 1.981, 1.981, 1.981, 1.981, 1.981, 1.98, 1.979, 1.974, 1.969, 1.968, 1.967, 1.962, 1.962, 1.961, 1.96, 1.96, 1.96, 1.961, 1.961, 1.962, 1.962, 1.967, 1.967, 1.967, 1.967, 1.968, 1.968, 1.968, 1.969, 1.974, 1.974, 1.978, 1.979, 1.979, 1.979, 1.974, 1.974, 1.969, 1.968, 1.967, 1.96, 1.96, 1.956, 1.956, 1.952, 1.952, 1.952, 1.952, 1.956, 1.956, 1.956, 1.96, 1.961, 1.962, 1.963, 1.967, 1.967, 1.968, 1.969, 1.97, 1.97, 1.97, 1.97, 1.969, 1.968, 1.967, 1.967, 1.962, 1.961, 1.96, 1.96, 1.956, 1.952, 1.952, 1.952, 1.952, 1.956, 1.961, 1.961, 1.962, 1.967, 1.967, 1.967, 1.967, 1.967, 1.967, 1.967, 1.968, 1.969, 1.97, 1.97, 1.97, 1.97, 1.969, 1.969, 1.968, 1.967, 1.962, 1.961, 1.96, 1.96, 1.96, 1.96, 1.96, 1.96, 1.96, 1.96, 1.96, 1.956, 1.956, 1.956, 1.952, 1.952, 1.952, 1.952, 1.951, 1.951, 1.951, 1.951, 1.951, 1.952, 1.952, 1.952, 1.952, 1.956, 1.956, 1.96, 1.96, 1.961, 1.962, 1.962, 1.961, 1.96, 1.96, 1.956, 1.952, 1.951, 1.95, 1.945, 1.945, 1.945, 1.945, 1.945, 1.945, 1.945, 1.945, 1.945, 1.944, 1.944, 1.945, 1.945, 1.945, 1.95, 1.95, 1.951, 1.952, 1.952, 1.956, 1.956, 1.96, 1.96, 1.96, 1.961, 1.961, 1.962, 1.962, 1.962, 1.962, 1.962, 1.962, 1.961, 1.961, 1.961, 1.96, 1.956, 1.956, 1.952, 1.952, 1.951, 1.95, 1.949, 1.949, 1.945, 1.945, 1.945, 1.949, 1.949, 1.949, 1.949, 1.949, 1.949, 1.949, 1.949, 1.945, 1.945, 1.949, 1.95, 1.951, 1.952, 1.952, 1.956, 1.956, 1.956, 1.956, 1.952, 1.951, 1.95, 1.945, 1.944, 1.943, 1.942, 1.942, 1.942, 1.942, 1.943, 1.944, 1.945, 1.945, 1.945, 1.944, 1.943, 1.942, 1.938, 1.937, 1.936, 1.935, 1.935, 1.935, 1.935, 1.936, 1.937, 1.938, 1.942, 1.942, 1.942, 1.942, 1.942, 1.942, 1.942, 1.942, 1.942, 1.942, 1.938, 1.938, 1.937, 1.936, 1.935, 1.931, 1.93, 1.929, 1.928, 1.923, 1.922, 1.916, 1.914, 1.912, 1.906, 1.905, 1.9, 1.9, 1.9, 1.9, 1.904, 1.905, 1.906, 1.912, 1.916, 1.922, 1.923, 1.924, 1.929, 1.93, 1.936, 1.937, 1.938, 1.942, 1.942, 1.942, 1.942, 1.938, 1.938, 1.942, 1.937, 1.936, 1.935, 1.931, 1.93, 1.929, 1.923, 1.922, 1.921, 1.921, 1.921, 1.921, 1.921, 1.922, 1.923, 1.924, 1.928, 1.928, 1.928, 1.928, 1.928, 1.923, 1.923, 1.922, 1.921, 1.921, 1.921, 1.917, 1.916, 1.915, 1.914, 1.913, 1.912, 1.911, 1.911, 1.911, 1.911, 1.912, 1.913, 1.913, 1.914, 1.916, 1.922, 1.923, 1.928, 1.929, 1.93, 1.935, 1.935, 1.935, 1.935, 1.931, 1.93, 1.929, 1.928, 1.924, 1.924, 1.924, 1.923, 1.922, 1.916, 1.915, 1.913, 1.905, 1.899, 1.894, 1.887, 1.886, 1.88, 1.876
1.974, 1.979, 1.98, 1.985, 1.985, 1.985, 1.985, 1.989, 1.989, 1.989, 1.989, 1.989, 1.989, 1.989, 1.989, 1.985, 1.98, 1.979, 1.974, 1.974, 1.968, 1.967, 1.963, 1.963, 1.963, 1.963, 1.967, 1.968, 1.969, 1.974, 1.978, 1.979, 1.98, 1.981, 1.98, 1.98, 1.98, 1.979, 1.978, 1.978, 1.974, 1.974, 1.974, 1.974, 1.978, 1.979, 1.98, 1.981, 1.985, 1.989, 1.989, 1.989, 1.989, 1.985, 1.985, 1.981, 1.98, 1.979, 1.979, 1.978, 1.978, 1.978, 1.978, 1.978, 1.978, 1.978, 1.974, 1.974, 1.974, 1.974, 1.974, 1.974, 1.974, 1.974, 1.969, 1.968, 1.967, 1.967, 1.963, 1.962, 1.961, 1.96, 1.96, 1.961, 1.962, 1.967, 1.968, 1.974, 1.974, 1.979, 1.98, 1.981, 1.981, 1.981, 1.981, 1.981, 1.98, 1.979, 1.979, 1.974, 1.969, 1.968, 1.967, 1.962, 1.961, 1.96, 1.96, 1.96, 1.961, 1.962, 1.962, 1.967, 1.968, 1.968, 1.968, 1.968, 1.968, 1.969, 1.969, 1.969, 1.969, 1.974, 1.974, 1.979, 1.98, 1.98, 1.98, 1.979, 1.974, 1.974, 1.967, 1.967, 1.96, 1.96, 1.956, 1.956, 1.952, 1.952, 1.952, 1.952, 1.956, 1.956, 1.956, 1.956, 1.96, 1.961, 1.962, 1.963, 1.967, 1.968, 1.969, 1.97, 1.97, 1.97, 1.97, 1.97, 1.969, 1.968, 1.967, 1.962, 1.961, 1.96, 1.956, 1.952, 1.952, 1.952, 1.952, 1.952, 1.952, 1.956, 1.961, 1.961, 1.962, 1.967, 1.967, 1.967, 1.967, 1.967, 1.967, 1.968, 1.969, 1.969, 1.97, 1.97, 1.969, 1.969, 1.968, 1.967, 1.962, 1.961, 1.96, 1.96, 1.956, 1.956, 1.956, 1.96, 1.96, 1.96, 1.96, 1.96, 1.956, 1.956, 1.956, 1.956, 1.952, 1.952, 1.952, 1.952, 1.952, 1.952, 1.952, 1.952, 1.952, 1.952, 1.952, 1.956, 1.956, 1.96, 1.96, 1.96, 1.961, 1.962, 1.962, 1.961, 1.96, 1.96, 1.956, 1.952, 1.951, 1.95, 1.945, 1.945, 1.945, 1.945, 1.945, 1.945, 1.945, 1.945, 1.944, 1.943, 1.943, 1.944, 1.945, 1.945, 1.945, 1.949, 1.95, 1.951, 1.952, 1.952, 1.956, 1.956, 1.96, 1.96, 1.96, 1.96, 1.961, 1.961, 1.961, 1.961, 1.961, 1.961, 1.96, 1.96, 1.956, 1.956, 1.952, 1.952, 1.951, 1.951, 1.95, 1.949, 1.949, 1.945, 1.945, 1.945, 1.945, 1.945, 1.949, 1.949, 1.949, 1.949, 1.949, 1.949, 1.945, 1.945, 1.945, 1.949, 1.95, 1.951, 1.952, 1.952, 1.952, 1.956, 1.956, 1.952, 1.951, 1.95, 1.95, 1.945, 1.944, 1.943, 1.942, 1.942, 1.942, 1.942, 1.943, 1.944, 1.945, 1.945, 1.945, 1.945, 1.944, 1.943, 1.942, 1.937, 1.936, 1.935, 1.935, 1.935, 1.935, 1.935, 1.936, 1.937, 1.942, 1.942, 1.942, 1.943, 1.943, 1.942, 1.942, 1.942, 1.942, 1.942, 1.938, 1.938, 1.937, 1.936, 1.931, 1.931, 1.93, 1.929, 1.928, 1.923, 1.922, 1.916, 1.914, 1.912, 1.906, 1.905, 1.9, 1.9, 1.9, 1.904, 1.904, 1.905, 1.906, 1.914, 1.916, 1.922, 1.923, 1.924, 1.929, 1.935, 1.936, 1.937, 1.942, 1.942, 1.942, 1.942, 1.942, 1.938, 1.938, 1.938, 1.937, 1.936, 1.935, 1.935, 1.93, 1.929, 1.923, 1.922, 1.921, 1.921, 1.921, 1.921, 1.921, 1.921, 1.922, 1.923, 1.928, 1.924, 1.924, 1.924, 1.924, 1.923, 1.922, 1.921, 1.921, 1.917, 1.917, 1.917, 1.917, 1.916, 1.914, 1.914, 1.912, 1.912, 1.911, 1.911, 1.912, 1.912, 1.913, 1.914, 1.915, 1.916, 1.922, 1.923, 1.928, 1.929, 1.93, 1.935, 1.935, 1.935, 1.935, 1.931, 1.93, 1.929, 1.928, 1.924, 1.924, 1.924, 1.923, 1.922, 1.921, 1.915, 1.914, 1.906, 1.9, 1.895, 1.888, 1.887, 1.885, 1.876
1.979, 1.979, 1.98, 1.985, 1.989, 1.989, 1.989, 1.989, 1.989, 1.989, 1.989, 1.989, 1.989, 1.989, 1.985, 1.985, 1.979, 1.978, 1.974, 1.969, 1.968, 1.963, 1.963, 1.962, 1.962, 1.963, 1.967, 1.968, 1.969, 1.974, 1.978, 1.979, 1.98, 1.981, 1.985, 1.985, 1.98, 1.98, 1.979, 1.978, 1.978, 1.974, 1.974, 1.974, 1.974, 1.979, 1.98, 1.985, 1.985, 1.989, 1.99, 1.99, 1.99, 1.985, 1.985, 1.98, 1.979, 1.979, 1.974, 1.974, 1.974, 1.974, 1.974, 1.978, 1.974, 1.974, 1.974, 1.974, 1.974, 1.974, 1.97, 1.97, 1.969, 1.969, 1.968, 1.967, 1.967, 1.967, 1.962, 1.961, 1.96, 1.96, 1.961, 1.962, 1.963, 1.968, 1.968, 1.974, 1.974, 1.979, 1.98, 1.981, 1.981, 1.985, 1.981, 1.981, 1.98, 1.979, 1.974, 1.974, 1.968, 1.967, 1.962, 1.961, 1.96, 1.96, 1.96, 1.96, 1.961, 1.962, 1.967, 1.968, 1.969, 1.969, 1.969, 1.969, 1.969, 1.969, 1.974, 1.974, 1.974, 1.974, 1.979, 1.979, 1.98, 1.98, 1.98, 1.979, 1.974, 1.974, 1.967, 1.962, 1.961, 1.96, 1.956, 1.956, 1.952, 1.952, 1.952, 1.956, 1.956, 1.956, 1.956, 1.956, 1.96, 1.961, 1.962, 1.962, 1.967, 1.967, 1.968, 1.969, 1.97, 1.97, 1.97, 1.97, 1.969, 1.968, 1.967, 1.962, 1.961, 1.96, 1.956, 1.952, 1.951, 1.951, 1.951, 1.951, 1.951, 1.952, 1.956, 1.961, 1.961, 1.962, 1.967, 1.967, 1.967, 1.967, 1.967, 1.967, 1.968, 1.968, 1.969, 1.969, 1.968, 1.968, 1.967, 1.962, 1.962, 1.961, 1.96, 1.956, 1.956, 1.956, 1.956, 1.956, 1.956, 1.96, 1.96, 1.96, 1.956, 1.956, 1.956, 1.956, 1.956, 1.952, 1.952, 1.952, 1.952, 1.952, 1.952, 1.952, 1.952, 1.952, 1.956, 1.956, 1.96, 1.96, 1.96, 1.96, 1.961, 1.961, 1.961, 1.961, 1.96, 1.96, 1.956, 1.952, 1.951, 1.95, 1.945, 1.945, 1.945, 1.945, 1.945, 1.945, 1.945, 1.945, 1.944, 1.943, 1.943, 1.943, 1.944, 1.944, 1.945, 1.949, 1.949, 1.95, 1.951, 1.952, 1.952, 1.956, 1.956, 1.956, 1.96, 1.96, 1.96, 1.96, 1.96, 1.96, 1.96, 1.956, 1.956, 1.956, 1.951, 1.951, 1.951, 1.951, 1.95, 1.95, 1.95, 1.945, 1.945, 1.945, 1.945, 1.945, 1.945, 1.945, 1.945, 1.945, 1.949, 1.949, 1.949, 1.949, 1.945, 1.945, 1.945, 1.949, 1.95, 1.951, 1.952, 1.952, 1.952, 1.952, 1.952, 1.952, 1.951, 1.95, 1.945, 1.945, 1.944, 1.943, 1.942, 1.942, 1.942, 1.942, 1.943, 1.944, 1.945, 1.945, 1.945, 1.945, 1.944, 1.943, 1.942, 1.937, 1.936, 1.935, 1.931, 1.931, 1.935, 1.935, 1.936, 1.937, 1.938, 1.942, 1.943, 1.944, 1.944, 1.943, 1.942, 1.942, 1.942, 1.942, 1.938, 1.938, 1.937, 1.936, 1.931, 1.93, 1.929, 1.928, 1.924, 1.923, 1.922, 1.916, 1.914, 1.912, 1.907, 1.906, 1.905, 1.904, 1.904, 1.904, 1.905, 1.905, 1.906, 1.915, 1.916, 1.922, 1.923, 1.931, 1.93, 1.936, 1.937, 1.938, 1.942, 1.942, 1.943, 1.942, 1.942, 1.938, 1.938, 1.938, 1.937, 1.936, 1.935, 1.935, 1.93, 1.929, 1.923, 1.922, 1.921, 1.921, 1.921, 1.921, 1.921, 1.921, 1.922, 1.923, 1.924, 1.924, 1.924, 1.923, 1.923, 1.922, 1.922, 1.917, 1.917, 1.917, 1.917, 1.917, 1.917, 1.916, 1.915, 1.914, 1.914, 1.913, 1.912, 1.912, 1.913, 1.913, 1.914, 1.914, 1.915, 1.916, 1.922, 1.923, 1.928, 1.929, 1.93, 1.935, 1.935, 1.935, 1.935, 1.93, 1.93, 1.929, 1.924, 1.923, 1.923, 1.923, 1.923, 1.922, 1.921, 1.916, 1.915, 1.907, 1.9, 1.896, 1.889, 1.887, 1.885, 1.877
1.979, 1.98, 1.985, 1.985, 1.989, 1.989, 1.989, 1.989, 1.989, 1.989, 1.989, 1.989, 1.989, 1.989, 1.985, 1.985, 1.979, 1.978, 1.974, 1.969, 1.968, 1.963, 1.962, 1.962, 1.962, 1.962, 1.967, 1.968, 1.969, 1.974, 1.979, 1.98, 1.981, 1.985, 1.985, 1.985, 1.985, 1.98, 1.979, 1.978, 1.978, 1.974, 1.974, 1.974, 1.974, 1.979, 1.98, 1.985, 1.985, 1.99, 1.991, 1.991, 1.99, 1.985, 1.985, 1.98, 1.979, 1.974, 1.974, 1.974, 1.974, 1.974, 1.974, 1.974, 1.974, 1.974, 1.974, 1.97, 1.97, 1.969, 1.969, 1.969, 1.969, 1.968, 1.967, 1.967, 1.967, 1.963, 1.962, 1.961, 1.961, 1.961, 1.961, 1.962, 1.963, 1.968, 1.969, 1.974, 1.974, 1.979, 1.98, 1.981, 1.981, 1.985, 1.981, 1.981, 1.98, 1.979, 1.974, 1.969, 1.968, 1.967, 1.962, 1.961, 1.96, 1.96, 1.96, 1.961, 1.962, 1.967, 1.968, 1.969, 1.974, 1.974, 1.974, 1.974, 1.974, 1.974, 1.974, 1.974, 1.974, 1.974, 1.979, 1.98, 1.981, 1.981, 1.98, 1.979, 1.974, 1.969, 1.968, 1.962, 1.961, 1.96, 1.956, 1.952, 1.952, 1.952, 1.952, 1.952, 1.956, 1.956, 1.956, 1.956, 1.96, 1.96, 1.961, 1.962, 1.963, 1.967, 1.968, 1.969, 1.97, 1.97, 1.97, 1.974, 1.97, 1.969, 1.968, 1.967, 1.96, 1.96, 1.956, 1.951, 1.95, 1.95, 1.95, 1.95, 1.95, 1.951, 1.952, 1.956, 1.96, 1.961, 1.962, 1.967, 1.967, 1.967, 1.967, 1.967, 1.967, 1.967, 1.968, 1.968, 1.967, 1.967, 1.967, 1.961, 1.961, 1.96, 1.956, 1.956, 1.952, 1.952, 1.952, 1.956, 1.956, 1.956, 1.956, 1.956, 1.956, 1.956, 1.956, 1.956, 1.956, 1.956, 1.956, 1.956, 1.956, 1.956, 1.956, 1.956, 1.956, 1.956, 1.956, 1.956, 1.96, 1.96, 1.96, 1.96, 1.96, 1.961, 1.961, 1.96, 1.96, 1.956, 1.952, 1.951, 1.95, 1.945, 1.945, 1.945, 1.945, 1.945, 1.945, 1.945, 1.945, 1.945, 1.944, 1.943, 1.942, 1.942, 1.943, 1.943, 1.944, 1.944, 1.949, 1.949, 1.95, 1.951, 1.952, 1.952, 1.952, 1.956, 1.956, 1.956, 1.956, 1.956, 1.956, 1.956, 1.956, 1.952, 1.952, 1.951, 1.95, 1.95, 1.95, 1.945, 1.945, 1.945, 1.945, 1.945, 1.945, 1.945, 1.945, 1.945, 1.945, 1.945, 1.945, 1.945, 1.949, 1.949, 1.949, 1.949, 1.949, 1.949, 1.949, 1.949, 1.95, 1.951, 1.951, 1.952, 1.952, 1.952, 1.952, 1.951, 1.95, 1.949, 1.945, 1.945, 1.944, 1.943, 1.942, 1.942, 1.942, 1.942, 1.943, 1.944, 1.945, 1.945, 1.945, 1.945, 1.944, 1.943, 1.942, 1.937, 1.936, 1.935, 1.931, 1.931, 1.931, 1.935, 1.935, 1.936, 1.937, 1.942, 1.943, 1.944, 1.944, 1.944, 1.943, 1.943, 1.942, 1.942, 1.938, 1.938, 1.937, 1.936, 1.931, 1.93, 1.929, 1.928, 1.923, 1.922, 1.921, 1.916, 1.914, 1.912, 1.912, 1.906, 1.905, 1.905, 1.905, 1.905, 1.905, 1.906, 1.912, 1.914, 1.916, 1.923, 1.929, 1.93, 1.931, 1.936, 1.937, 1.942, 1.942, 1.942, 1.943, 1.942, 1.942, 1.938, 1.938, 1.938, 1.937, 1.936, 1.935, 1.935, 1.93, 1.929, 1.923, 1.922, 1.921, 1.921, 1.921, 1.921, 1.921, 1.921, 1.922, 1.923, 1.924, 1.924, 1.923, 1.922, 1.922, 1.921, 1.917, 1.917, 1.917, 1.917, 1.916, 1.916, 1.917, 1.916, 1.915, 1.915, 1.914, 1.914, 1.914, 1.914, 1.914, 1.914, 1.914, 1.914, 1.915, 1.916, 1.922, 1.923, 1.923, 1.929, 1.93, 1.935, 1.935, 1.935, 1.931, 1.93, 1.929, 1.924, 1.923, 1.922, 1.922, 1.922, 1.922, 1.921, 1.921, 1.916, 1.914, 1.912, 1.904, 1.897, 1.889, 1.887, 1.886, 1.878
1.98, 1.985, 1.985, 1.989, 1.989, 1.989, 1.989, 1.989, 1.989, 1.989, 1.989, 1.989, 1.989, 1.985, 1.985, 1.985, 1.979, 1.979, 1.974, 1.969, 1.968, 1.963, 1.962, 1.961, 1.961, 1.962, 1.963, 1.967, 1.968, 1.974, 1.974, 1.981, 1.981, 1.985, 1.985, 1.985, 1.985, 1.981, 1.98, 1.979, 1.978, 1.974, 1.974, 1.974, 1.974, 1.979, 1.98, 1.985, 1.985, 1.99, 1.991, 1.991, 1.99, 1.985, 1.98, 1.979, 1.979, 1.974, 1.974, 1.974, 1.974, 1.974, 1.974, 1.974, 1.974, 1.974, 1.97, 1.969, 1.969, 1.968, 1.968, 1.968, 1.968, 1.967, 1.967, 1.967, 1.967, 1.963, 1.963, 1.962, 1.961, 1.961, 1.961, 1.962, 1.967, 1.968, 1.969, 1.97, 1.974, 1.978, 1.979, 1.98, 1.981, 1.981, 1.981, 1.981, 1.98, 1.974, 1.974, 1.969, 1.968, 1.962, 1.961, 1.96, 1.96, 1.96, 1.96, 1.961, 1.962, 1.968, 1.968, 1.974, 1.974, 1.979, 1.979, 1.979, 1.979, 1.979, 1.978, 1.978, 1.978, 1.979, 1.98, 1.981, 1.981, 1.985, 1.98, 1.979, 1.974, 1.969, 1.968, 1.962, 1.961, 1.96, 1.956, 1.952, 1.952, 1.952, 1.952, 1.952, 1.956, 1.956, 1.956, 1.956, 1.956, 1.96, 1.96, 1.961, 1.962, 1.963, 1.968, 1.969, 1.97, 1.97, 1.974, 1.974, 1.97, 1.969, 1.968, 1.967, 1.96, 1.96, 1.952, 1.951, 1.95, 1.945, 1.945, 1.945, 1.945, 1.95, 1.951, 1.952, 1.96, 1.961, 1.962, 1.967, 1.967, 1.967, 1.967, 1.967, 1.967, 1.967, 1.967, 1.967, 1.967, 1.962, 1.962, 1.961, 1.96, 1.956, 1.956, 1.952, 1.952, 1.952, 1.952, 1.952, 1.956, 1.956, 1.956, 1.956, 1.956, 1.956, 1.956, 1.96, 1.96, 1.96, 1.96, 1.96, 1.96, 1.96, 1.96, 1.956, 1.956, 1.956, 1.956, 1.956, 1.96, 1.96, 1.96, 1.96, 1.96, 1.96, 1.96, 1.96, 1.956, 1.956, 1.952, 1.951, 1.95, 1.945, 1.945, 1.945, 1.945, 1.945, 1.945, 1.945, 1.945, 1.945, 1.944, 1.943, 1.942, 1.942, 1.942, 1.942, 1.943, 1.944, 1.944, 1.949, 1.949, 1.95, 1.951, 1.951, 1.952, 1.952, 1.952, 1.956, 1.956, 1.956, 1.952, 1.952, 1.952, 1.951, 1.951, 1.95, 1.95, 1.945, 1.945, 1.944, 1.944, 1.944, 1.944, 1.944, 1.944, 1.944, 1.944, 1.944, 1.944, 1.944, 1.945, 1.945, 1.945, 1.945, 1.949, 1.949, 1.949, 1.949, 1.949, 1.949, 1.949, 1.95, 1.95, 1.951, 1.951, 1.951, 1.951, 1.95, 1.95, 1.945, 1.945, 1.945, 1.944, 1.943, 1.942, 1.942, 1.942, 1.942, 1.943, 1.944, 1.945, 1.945, 1.945, 1.945, 1.944, 1.943, 1.942, 1.937, 1.936, 1.935, 1.931, 1.931, 1.931, 1.935, 1.935, 1.936, 1.937, 1.942, 1.943, 1.944, 1.945, 1.945, 1.944, 1.944, 1.943, 1.942, 1.938, 1.938, 1.937, 1.936, 1.93, 1.929, 1.928, 1.928, 1.923, 1.922, 1.921, 1.916, 1.915, 1.913, 1.912, 1.906, 1.905, 1.905, 1.906, 1.906, 1.906, 1.907, 1.912, 1.916, 1.922, 1.923, 1.929, 1.93, 1.931, 1.937, 1.938, 1.942, 1.942, 1.942, 1.942, 1.942, 1.942, 1.938, 1.938, 1.937, 1.936, 1.935, 1.935, 1.931, 1.93, 1.929, 1.924, 1.923, 1.922, 1.921, 1.921, 1.921, 1.921, 1.921, 1.922, 1.923, 1.923, 1.923, 1.922, 1.922, 1.921, 1.916, 1.916, 1.916, 1.916, 1.916, 1.915, 1.915, 1.916, 1.916, 1.916, 1.916, 1.916, 1.915, 1.914, 1.914, 1.915, 1.915, 1.914, 1.914, 1.915, 1.916, 1.917, 1.922, 1.923, 1.929, 1.93, 1.93, 1.935, 1.931, 1.93, 1.929, 1.924, 1.923, 1.922, 1.922, 1.921, 1.921, 1.921, 1.921, 1.916, 1.916, 1.914, 1.912, 1.904, 1.896, 1.895, 1.887, 1.887, 1.879
1.98, 1.985, 1.985, 1.989, 1.99, 1.989, 1.989, 1.989, 1.989, 1.989, 1.989, 1.989, 1.989, 1.985, 1.985, 1.985, 1.979, 1.978, 1.974, 1.969, 1.968, 1.963, 1.962, 1.962, 1.962, 1.962, 1.963, 1.967, 1.968, 1.974, 1.974, 1.981, 1.981, 1.985, 1.985, 1.985, 1.985, 1.985, 1.98, 1.979, 1.978, 1.974, 1.974, 1.974, 1.974, 1.979, 1.98, 1.985, 1.985, 1.99, 1.991, 1.991, 1.99, 1.985, 1.98, 1.979, 1.974, 1.974, 1.97, 1.97, 1.97, 1.97, 1.974, 1.974, 1.974, 1.97, 1.969, 1.968, 1.968, 1.967, 1.967, 1.967, 1.967, 1.967, 1.967, 1.967, 1.963, 1.963, 1.963, 1.963, 1.962, 1.962, 1.962, 1.963, 1.967, 1.968, 1.969, 1.97, 1.974, 1.978, 1.979, 1.98, 1.981, 1.981, 1.981, 1.98, 1.979, 1.974, 1.974, 1.968, 1.967, 1.962, 1.961, 1.96, 1.96, 1.96, 1.961, 1.962, 1.967, 1.968, 1.974, 1.974, 1.979, 1.98, 1.98, 1.98, 1.98, 1.98, 1.979, 1.979, 1.979, 1.979, 1.98, 1.981, 1.985, 1.985, 1.981, 1.98, 1.974, 1.974, 1.967, 1.962, 1.961, 1.96, 1.956, 1.952, 1.952, 1.952, 1.952, 1.956, 1.956, 1.956, 1.956, 1.956, 1.956, 1.96, 1.96, 1.961, 1.962, 1.963, 1.968, 1.969, 1.97, 1.97, 1.974, 1.974, 1.974, 1.969, 1.968, 1.967, 1.96, 1.956, 1.951, 1.95, 1.945, 1.945, 1.945, 1.945, 1.945, 1.95, 1.951, 1.951, 1.956, 1.96, 1.961, 1.962, 1.967, 1.967, 1.967, 1.967, 1.967, 1.967, 1.967, 1.967, 1.962, 1.962, 1.961, 1.96, 1.956, 1.956, 1.952, 1.952, 1.952, 1.952, 1.952, 1.952, 1.952, 1.956, 1.956, 1.956, 1.956, 1.956, 1.96, 1.96, 1.96, 1.96, 1.96, 1.96, 1.96, 1.96, 1.96, 1.956, 1.956, 1.956, 1.956, 1.956, 1.956, 1.956, 1.956, 1.956, 1.956, 1.956, 1.956, 1.956, 1.952, 1.952, 1.952, 1.951, 1.95, 1.945, 1.945, 1.945, 1.945, 1.945, 1.945, 1.945, 1.945, 1.945, 1.944, 1.943, 1.942, 1.942, 1.942, 1.942, 1.942, 1.943, 1.944, 1.944, 1.949, 1.949, 1.95, 1.95, 1.951, 1.951, 1.952, 1.952, 1.952, 1.952, 1.952, 1.951, 1.951, 1.95, 1.95, 1.945, 1.944, 1.944, 1.944, 1.943, 1.943, 1.943, 1.943, 1.943, 1.943, 1.943, 1.943, 1.943, 1.943, 1.943, 1.944, 1.945, 1.945, 1.945, 1.949, 1.949, 1.949, 1.949, 1.949, 1.949, 1.949, 1.949, 1.949, 1.95, 1.95, 1.95, 1.95, 1.95, 1.945, 1.945, 1.945, 1.944, 1.943, 1.942, 1.942, 1.942, 1.942, 1.942, 1.942, 1.943, 1.944, 1.945, 1.945, 1.945, 1.945, 1.944, 1.943, 1.937, 1.936, 1.935, 1.931, 1.931, 1.931, 1.935, 1.935, 1.936, 1.937, 1.938, 1.943, 1.944, 1.945, 1.945, 1.945, 1.944, 1.944, 1.943, 1.938, 1.938, 1.937, 1.936, 1.93, 1.929, 1.928, 1.928, 1.923, 1.922, 1.921, 1.917, 1.916, 1.914, 1.913, 1.907, 1.906, 1.906, 1.907, 1.907, 1.907, 1.913, 1.914, 1.916, 1.922, 1.923, 1.929, 1.93, 1.931, 1.938, 1.942, 1.942, 1.942, 1.942, 1.942, 1.942, 1.938, 1.938, 1.938, 1.937, 1.936, 1.935, 1.935, 1.931, 1.93, 1.929, 1.924, 1.924, 1.923, 1.922, 1.921, 1.921, 1.921, 1.921, 1.922, 1.923, 1.923, 1.922, 1.922, 1.917, 1.916, 1.915, 1.915, 1.915, 1.915, 1.914, 1.914, 1.914, 1.915, 1.916, 1.917, 1.917, 1.917, 1.916, 1.915, 1.915, 1.916, 1.916, 1.915, 1.915, 1.915, 1.916, 1.917, 1.922, 1.922, 1.923, 1.929, 1.93, 1.93, 1.93, 1.93, 1.929, 1.923, 1.922, 1.922, 1.917, 1.917, 1.917, 1.917, 1.916, 1.916, 1.915, 1.913, 1.912, 1.904, 1.896, 1.895, 1.888, 1.887, 1.879
